# .PCD v0.7 - Point Cloud Data file format
VERSION 0.7
FIELDS x y z normal_x normal_y normal_z curvature
SIZE 4 4 4 4 4 4 4
TYPE F F F F F F F
COUNT 1 1 1 1 1 1 1
WIDTH 585
HEIGHT 1
VIEWPOINT 0 0 0 1 0 0 0
POINTS 585
DATA ascii
-0.28918266 -0.027610527 0.033535175 -0.65823209 -0.078059584 0.76548713 0.029473456
-0.28618005 -0.026035687 0.036355648 -0.61214423 -0.10137893 0.80421782 0.079066172
-0.23790599 -0.027526317 0.035003264 0.79845876 0.59575552 -0.090564393 0.19552062
-0.23435105 -0.0309199 0.037826747 0.77408642 0.604725 -0.18766204 0.17208508
0.11772535 -0.024455324 0.033271 0.82550228 0.1368959 -0.54777288 0.029951081
0.12047154 -0.026770731 0.039057072 0.81204325 0.13506746 -0.56898534 0.043507583
-0.28850865 -0.018237803 0.029994939 -0.75463861 0.31713659 0.70121461 0.1151719
-0.24346526 -0.017575217 0.036031149 0.91450965 0.38844863 -0.11614395 0.18255632
-0.2387221 -0.024969537 0.037324172 0.82947177 0.5341264 -0.16704814 0.16550806
0.11360145 -0.010766726 0.029018214 0.82607621 0.16923565 -0.53755593 0.022355929
0.11676355 -0.014481247 0.0333599 0.83855802 0.15914808 -0.52106905 0.022355122
0.12009259 -0.016340541 0.040868748 0.81749195 0.17334819 -0.55022097 0.038303062
0.12071303 -0.018664917 0.042588957 0.80439472 0.17844415 -0.56877649 0.045223754
-0.24512811 -0.0040172618 0.034685865 0.98165345 0.13539048 -0.13482529 0.15655336
-0.24583954 -0.0079759741 0.036701411 0.96778929 0.21196264 -0.1415318 0.16855504
0.11230302 -0.0034853662 0.029958241 0.81660283 0.19930702 -0.54170185 0.02278127
0.11503579 -0.0042789881 0.034555521 0.83525884 0.18856543 -0.51656407 0.020905564
0.11807631 -0.0061864262 0.039501157 0.82429701 0.1929301 -0.53235662 0.0263991
-0.24347255 0.00490118 0.034681529 0.9864397 -0.0027255882 -0.16475688 0.12848836
-0.24440457 0.0049591828 0.036201164 0.98313892 0.0080289012 -0.18356951 0.13583702
0.11020584 0.0067914496 0.031273995 0.79572296 0.22741663 -0.56145078 0.026123809
0.1138671 0.0047090109 0.036758978 0.82960713 0.21121177 -0.51689535 0.021553325
0.11733568 0.0019104959 0.042414725 0.83089453 0.20874642 -0.51585615 0.024842232
-0.24152814 0.01382239 0.033612665 0.97228694 -0.10309687 -0.21042363 0.089449182
-0.24124844 0.0159452 0.036824737 0.96239537 -0.12455907 -0.24141409 0.089622997
0.10330107 0.017964887 0.026444081 0.72166204 0.28230539 -0.63221252 0.030052604
0.10811784 0.015854377 0.032287147 0.77353323 0.25942391 -0.57841372 0.028714426
0.1111926 0.015368119 0.037680242 0.80723488 0.24139151 -0.53862351 0.024231359
0.11502059 0.010286132 0.043018751 0.82752347 0.22329202 -0.51515341 0.024436126
-0.23826601 0.023592571 0.034467012 0.94755167 -0.19755946 -0.25189039 0.056570202
-0.23792793 0.025692882 0.035717271 0.94534642 -0.1904299 -0.26485282 0.054173786
0.10310578 0.026306186 0.029640388 0.71932775 0.29159766 -0.63050735 0.032304119
0.10680167 0.02574149 0.034932271 0.75995719 0.27092788 -0.59103 0.030181425
0.10838912 0.024203101 0.037161987 0.78292823 0.25822186 -0.56610441 0.026913658
-0.23627207 0.029907698 0.034143485 0.94001496 -0.22508219 -0.25711498 0.038286414
-0.23501116 0.035693962 0.034998354 0.93467516 -0.21434529 -0.28369775 0.025628243
-0.23375039 0.036403365 0.039254073 0.93445927 -0.21131113 -0.28667173 0.026102051
0.10087513 0.035990566 0.030997418 0.68277299 0.3182942 -0.65774268 0.03429193
0.10399125 0.035356149 0.03515368 0.72499073 0.29315409 -0.62330484 0.032578122
-0.23256667 0.044403184 0.034551069 0.92863166 -0.22489184 -0.29530066 0.013384117
-0.2309487 0.047557987 0.03729206 0.92885125 -0.21630161 -0.30084112 0.010571021
0.098140657 0.047594573 0.033541556 -0.65128833 -0.34766299 0.67452389 0.033619616
0.10228251 0.044856597 0.037445176 0.68989164 0.32305491 -0.64788419 0.032942101
-0.23072438 0.05524857 0.033967346 0.93035644 -0.2002559 -0.30714306 0.0069550783
-0.22960161 0.055522505 0.037078403 0.92813742 -0.2019058 -0.31272504 0.0067181871
0.082403712 0.059024878 0.028809536 -0.55593193 -0.39196292 0.73336661 0.026546199
0.088408522 0.057432074 0.031457387 -0.57159895 -0.39282367 0.72059101 0.028085245
0.095736876 0.054852542 0.035496935 -0.62516868 -0.36507958 0.68985653 0.03239049
0.10119208 0.052725535 0.040504027 0.67378199 0.33983144 -0.65616471 0.03201906
-0.22965167 0.063765086 0.032127205 0.93127275 -0.20269302 -0.30274615 0.0075192261
-0.22783124 0.065583654 0.036167938 0.92738914 -0.20655574 -0.3119339 0.0066879713
0.068484537 0.069583848 0.027414611 -0.57423985 -0.37346122 0.72855896 0.023491275
0.077906132 0.066941299 0.031431317 -0.55853701 -0.39437154 0.72997969 0.024801306
0.085370064 0.065349646 0.03481381 -0.56164491 -0.40427175 0.72208524 0.02576354
0.09276665 0.062934361 0.038330272 -0.59397709 -0.39477625 0.70101339 0.028925238
0.098541297 0.060156003 0.041678239 -0.64527601 -0.36291841 0.67224431 0.03127848
-0.22804409 0.073333673 0.03182647 0.93043613 -0.21198748 -0.29896337 0.0072573405
-0.22609077 0.075326815 0.035696838 0.92610961 -0.21235025 -0.31183198 0.00644188
0.062328815 0.081688233 0.028193612 -0.62565547 -0.33949181 0.70236218 0.021136977
0.067296416 0.077664003 0.030850993 -0.59394741 -0.36240372 0.71825498 0.022055622
0.075273342 0.075746574 0.034934856 -0.57525116 -0.38831174 0.72001839 0.02320979
0.08237344 0.072979175 0.037806615 -0.56654704 -0.40791738 0.71622479 0.023934642
0.091116071 0.071310267 0.042308841 -0.58487332 -0.40351835 0.70374918 0.025839945
-0.22435345 0.085272387 0.035014268 0.9232437 -0.23377234 -0.3049573 0.0065376665
-0.22171459 0.090191677 0.039448995 0.91578144 -0.24812616 -0.31596988 0.0063445694
0.060582839 0.085901648 0.028349446 -0.6405707 -0.33621186 0.69045466 0.019709798
0.066425279 0.085852429 0.033924837 -0.61094695 -0.36607152 0.70201629 0.022561099
0.073014125 0.083288729 0.037834886 -0.58114541 -0.39431024 0.71192545 0.022285214
0.08110749 0.08063399 0.041812129 -0.57540435 -0.40845555 0.70867485 0.023343543
-0.22252731 0.094341256 0.034225456 0.91733712 -0.26717556 -0.29520047 0.0072503258
-0.22023202 0.097009875 0.03826353 0.91399342 -0.27127144 -0.30172369 0.0065370356
0.058882229 0.0959417 0.031665314 -0.66999024 -0.3177138 0.67095882 0.019163037
0.06472975 0.09399578 0.036545556 -0.64127678 -0.35315159 0.68123341 0.019803267
0.070709541 0.091774903 0.0407473 -0.60917228 -0.38299048 0.69443661 0.020869009
0.07594233 0.090059094 0.043714266 -0.59973627 -0.40455422 0.69047445 0.020468712
-0.22070161 0.10303466 0.031950433 0.91334438 -0.30354261 -0.27149028 0.0079140412
-0.21841271 0.10541194 0.036197774 0.90913558 -0.30889553 -0.27941024 0.008026897
0.052750535 0.1114677 0.030616499 0.69192946 0.31865141 -0.64795774 0.021858895
0.056360804 0.10611528 0.033147283 0.68946636 0.31182352 -0.65378761 0.019068746
0.062659137 0.10325672 0.03843265 0.67371875 0.33020845 -0.66112643 0.018374108
-0.21532604 0.11456558 0.034782164 0.90379596 -0.34591886 -0.25206432 0.0099154534
0.050008286 0.11671202 0.029098108 0.69217634 0.3432833 -0.63509274 0.025285056
0.055170529 0.11507566 0.03494449 0.69203812 0.33854789 -0.63771236 0.022734938
0.057919499 0.1121983 0.037078515 0.69141603 0.33202991 -0.64172083 0.020268166
-0.21213783 0.12277387 0.034322768 0.89824271 -0.3773604 -0.225328 0.011260727
-0.20953399 0.12719998 0.036292389 0.89816523 -0.38766551 -0.20758897 0.012214405
0.048664667 0.12704702 0.032491386 0.67111939 0.42706817 -0.60627276 0.030561028
0.05317343 0.12440151 0.036669094 0.68609667 0.40418905 -0.60526127 0.027819555
0.059421439 0.12026017 0.042431634 0.69001579 0.37714037 -0.61780477 0.02244013
-0.20883211 0.13129213 0.031055382 0.89078206 -0.41643727 -0.18216251 0.012354802
-0.20593463 0.13545153 0.035123277 0.89308149 -0.41558558 -0.1727597 0.01243974
0.039477006 0.13694732 0.029674895 0.64077014 0.49603984 -0.58601302 0.035846241
0.045255359 0.13536493 0.035435066 0.6580959 0.48341513 -0.57743967 0.032470558
0.050266571 0.13248181 0.039203081 0.66515738 0.47038898 -0.58015448 0.029490056
-0.20267583 0.14233978 0.035628956 0.89147234 -0.4299219 -0.14298463 0.012473425
-0.19970705 0.14860369 0.035635155 0.88424468 -0.4510127 -0.12126911 0.012572248
0.015322397 0.15508485 0.026793864 -0.62515056 -0.45926806 0.6311813 0.062358718
0.020805983 0.15455979 0.031979501 0.63543957 0.47620285 -0.60805315 0.057482507
0.028740164 0.1483628 0.032411505 0.62147701 0.51443118 -0.59165215 0.046086136
0.035044439 0.1446283 0.034699097 0.63021189 0.51837271 -0.57855535 0.041642386
0.041067962 0.14100525 0.037505351 0.6533919 0.49802244 -0.57046402 0.038697369
0.045917016 0.13684769 0.038128953 0.66063362 0.48847234 -0.57005668 0.032317426
-0.19677499 0.15379368 0.036095038 0.87813669 -0.46716473 -0.10322136 0.011818074
-0.19597413 0.15576605 0.035109416 0.87563509 -0.47277299 -0.098743819 0.012100339
-0.19327076 0.1604577 0.038617007 0.86932403 -0.48499954 -0.095277466 0.012478156
0.0054437313 0.162047 0.022794833 -0.62971038 -0.358206 0.69130617 0.074543707
0.011102669 0.16105336 0.028163712 -0.64865232 -0.37413502 0.66561419 0.07248275
0.017926948 0.15805562 0.03281099 0.65727597 0.40990078 -0.63305634 0.06594456
0.021888649 0.15529785 0.034685869 0.64875203 0.44477734 -0.61767447 0.057640743
0.029356888 0.15362608 0.041333076 0.66752976 0.43277073 -0.60700321 0.063402988
-0.19447386 0.15877062 0.033966318 0.86828059 -0.4890151 -0.083526723 0.012571271
-0.19046678 0.16604811 0.034752052 0.85275775 -0.51819944 -0.065525681 0.012903114
-0.19021492 0.16667423 0.034866001 0.84911042 -0.52450341 -0.062654518 0.013108764
0.0034947274 0.16814052 0.023868928 -0.65285492 -0.23754716 0.71995509 0.079749852
0.0092973709 0.16712625 0.029956473 -0.68144882 -0.25912631 0.6845417 0.083084397
0.014690092 0.16474326 0.034539118 -0.68932807 -0.27834049 0.66925591 0.086064108
0.01879487 0.16527468 0.038966697 -0.69861275 -0.26580611 0.66562468 0.091070309
-0.18814494 0.17061737 0.03049738 0.83238924 -0.55282182 -0.039121855 0.013684807
-0.18458569 0.17604864 0.035235003 0.81438947 -0.57849818 -0.046195485 0.014923487
0.0093284696 0.17589888 0.029968007 -0.69606459 -0.058175921 0.71627694 0.081273876
0.014867527 0.17518178 0.036188941 0.70925236 0.057742745 -0.70365614 0.090557687
0.019273926 0.17411946 0.041270293 0.72628391 0.09068609 -0.6819796 0.098934501
-0.17941238 0.18328036 0.034981307 0.77076596 -0.63613868 -0.035989929 0.016828861
-0.17643563 0.18671243 0.035615902 0.75038385 -0.66040707 -0.031863976 0.015939089
0.010705361 0.18460785 0.028147424 -0.64907217 0.12271734 0.75083864 0.070147328
0.016041443 0.1842811 0.033463281 -0.68856537 0.14046057 0.71144795 0.076195501
0.021596428 0.18507548 0.040122993 0.73390949 -0.14110051 -0.66498202 0.086293846
0.025949584 0.18998741 0.041754551 0.77693468 -0.20607786 -0.59522438 0.083959468
-0.17203239 0.19123673 0.035716631 0.72152233 -0.69219786 -0.022926491 0.014961532
-0.16643745 0.19680436 0.034263141 0.67251128 -0.74036092 0.0048404261 0.015907375
0.011657752 0.18955001 0.026177477 -0.61078256 0.19573477 0.7673353 0.062855162
0.019444644 0.19221945 0.031415485 -0.67124867 0.25745305 0.69538838 0.065158948
0.024024121 0.19554719 0.034674075 0.7067275 -0.29940298 -0.64108467 0.062929064
0.028704556 0.19783591 0.03919271 0.75731188 -0.31667519 -0.57121575 0.073428191
0.03641386 0.20760606 0.046323076 0.85621953 -0.3739292 -0.35714403 0.098451376
-0.16447195 0.19863717 0.0351771 0.65985149 -0.75166464 0.0013694199 0.015848218
-0.15600926 0.20608738 0.036723554 0.56943792 -0.82229966 0.015768675 0.018693192
0.022401724 0.20280769 0.02861036 -0.65222216 0.31877989 0.68814051 0.072367303
0.027075991 0.20391284 0.031926453 0.70276845 -0.33437005 -0.62801009 0.077710189
0.031099778 0.20633698 0.036808588 0.75806016 -0.364142 -0.54141861 0.088244356
0.036860071 0.21385927 0.04180121 0.83063883 -0.40973461 -0.38035125 0.10581761
0.036377095 0.21380843 0.041573077 0.81512409 -0.44236392 -0.37648502 0.1142164
-0.15012477 0.21007906 0.034690443 0.50499392 -0.860744 0.064244047 0.025982674
-0.14299987 0.21399654 0.035496928 0.45372942 -0.88784915 0.081288099 0.024908446
-0.13823521 0.21554509 0.031208713 0.41417572 -0.89720666 0.15579866 0.029691128
0.025112206 0.20923336 0.027479926 -0.64151967 0.36443129 0.67539316 0.088635802
0.030040361 0.21227728 0.030438259 0.70118117 -0.38884407 -0.5981164 0.098376997
0.034578506 0.21451019 0.035373088 0.77065331 -0.41696444 -0.48284784 0.1033391
0.037545018 0.22011924 0.036276512 0.79320973 -0.46134675 -0.39872938 0.11204083
0.040028062 0.22540177 0.040962923 0.7899946 -0.5292812 -0.31133208 0.12717453
0.041840017 0.22942267 0.037728179 0.72690797 -0.6295138 -0.27545053 0.13463257
-0.13880713 0.21641889 0.039904501 0.4554821 -0.8878848 0.065006278 0.034421731
-0.12212674 0.22269163 0.037747934 0.4398801 -0.87437975 0.22943863 0.093014568
-0.11337636 0.22517429 0.034997694 0.38461819 -0.86402828 0.36440024 0.11439221
-0.10449797 0.2293776 0.033252168 0.31298286 -0.80165976 0.5140965 0.1142627
-0.098183945 0.22973986 0.030682955 0.25959125 -0.78344619 0.56654054 0.10587133
-0.08830069 0.23138925 0.029845243 0.24594314 -0.72386962 0.64466965 0.10760929
-0.079259746 0.23115698 0.027616449 0.29304957 -0.66290498 0.68947494 0.10001285
-0.068395443 0.23317239 0.025225697 0.38788223 -0.52939373 0.75500399 0.10409354
0.033187684 0.21996839 0.028866693 0.70415413 -0.43539837 -0.56119275 0.1090728
0.03748782 0.22307923 0.032370504 0.7542417 -0.48331726 -0.4446108 0.12189968
0.040381942 0.22616291 0.036524821 0.79242444 -0.51038492 -0.33454573 0.12047853
0.044361919 0.23419094 0.039288789 0.77133811 -0.60003388 -0.21245356 0.13451467
-0.092961535 0.23531072 0.036357876 0.29035339 -0.64818758 0.70441103 0.17395897
-0.082229026 0.23574688 0.034879781 0.40417176 -0.57012677 0.71639705 0.15754531
-0.077289715 0.23547255 0.032478668 0.40047252 -0.54596943 0.73709691 0.13643901
-0.067871653 0.23982315 0.029893979 0.5155949 -0.43079579 0.74169606 0.12135851
-0.06123846 0.23958698 0.026116369 0.48992848 -0.33454907 0.80657256 0.11082412
0.039040312 0.2272028 0.029799184 0.74150401 -0.50176007 -0.44621226 0.1328305
0.043320235 0.23196916 0.032583252 0.77154011 -0.55854779 -0.30576828 0.12921278
0.044887964 0.23542954 0.035075903 0.73914266 -0.62343025 -0.25505456 0.13260937
0.048659761 0.24004225 0.035818912 0.74145722 -0.65140474 -0.16101478 0.13476396
0.052967675 0.24567397 0.036326084 0.74375993 -0.66714239 -0.04378457 0.13004412
-0.085242897 0.24051918 0.046318311 0.48241851 -0.37898746 0.7964316 0.22666508
-0.078607656 0.24570648 0.043852203 0.68586791 -0.253438 0.70521605 0.22353531
-0.073300816 0.24345554 0.037284922 0.61415905 -0.310536 0.73243541 0.18093492
-0.06537652 0.24660327 0.032459278 0.60011888 -0.17360418 0.78472733 0.14563546
-0.059979256 0.24640901 0.028258782 0.58538646 -0.19179666 0.78856039 0.11788423
-0.052390411 0.24659792 0.022564961 0.56054091 -0.1117887 0.82212842 0.08958371
0.039379686 0.23206806 0.025387049 0.67923433 -0.59422761 -0.43153232 0.14475995
0.046420041 0.23684081 0.031533603 0.75085938 -0.62342399 -0.22035338 0.13783449
0.049486909 0.23972711 0.034354828 0.74719149 -0.65038788 -0.13755283 0.13629869
0.053150725 0.24454053 0.035986189 0.74419677 -0.66471165 -0.066221178 0.12946431
0.058399577 0.25159472 0.03527981 0.74281245 -0.66935945 0.025453636 0.12874167
0.062220398 0.25502992 0.03504413 0.76858068 -0.63778585 0.053162605 0.12443144
-0.089033343 0.26387137 0.047863215 0.70654863 0.29962111 0.64221013 0.20760319
-0.083574027 0.2603724 0.046027698 0.6748637 0.23175672 0.70189005 0.2079353
-0.076565266 0.254228 0.043148782 0.63791925 0.016711239 0.77937192 0.20670927
-0.075289302 0.25820968 0.039312497 0.65083343 0.18431202 0.74052918 0.16646481
-0.067250252 0.25502551 0.034444183 0.63958555 0.065857142 0.77128029 0.15314233
-0.060455624 0.25398189 0.029056467 0.63569909 0.036163196 0.77542084 0.12422916
-0.053095687 0.25390676 0.023494903 0.62263316 0.020138407 0.7834115 0.088360928
0.054969791 0.24492624 0.034392618 0.70736092 -0.70682681 -0.020141087 0.13498573
0.059243504 0.25025392 0.034832086 0.73372 -0.67942774 0.012188051 0.1274112
0.064222008 0.25515282 0.03558119 0.74560833 -0.66318166 0.066134125 0.12198167
0.066747464 0.26002178 0.034553263 0.80298567 -0.59087163 0.079607442 0.12488518
0.07028082 0.26458564 0.032911792 0.86225063 -0.50193024 0.069108032 0.11882499
-0.09289255 0.26948065 0.046282943 0.63915455 0.38565496 0.66831583 0.17075731
-0.087616041 0.2682294 0.042763755 0.60332751 0.4049592 0.687931 0.15946068
-0.085714921 0.2669012 0.040695958 0.60832202 0.4512659 0.65338719 0.14737892
-0.074463874 0.26543361 0.035265721 0.55855018 0.35171941 0.75171709 0.14049675
-0.068490997 0.26321462 0.031825833 0.59247482 0.2891717 0.75323558 0.12195342
-0.061150029 0.26240095 0.027859744 0.59358472 0.20755257 0.7789188 0.10520206
-0.056254752 0.260654 0.024468005 0.61387944 0.1761383 0.77112913 0.091453888
0.061448783 0.25111061 0.037461337 0.72400594 -0.68438661 0.087203041 0.11878202
0.065450206 0.25499249 0.035367012 0.74529457 -0.66399145 0.063161939 0.11892822
0.070327453 0.26143786 0.035722904 0.80946207 -0.57960224 0.095656358 0.12102486
0.073734827 0.26770514 0.033335362 0.87830037 -0.47175756 0.078089193 0.11266076
0.072620876 0.27009726 0.034134068 0.91420722 -0.40198231 0.054303944 0.10987733
-0.10191639 0.28182667 0.044554919 0.74109536 0.49055824 0.45949996 0.12007324
-0.093256325 0.27918181 0.03660522 0.53396177 0.51528805 0.6708405 0.11780304
-0.075884975 0.27281561 0.030704182 0.47599959 0.43662843 0.76351762 0.11135123
-0.068510063 0.27077529 0.027941834 0.51013547 0.37698066 0.77324873 0.10842155
-0.06186353 0.26905861 0.024389612 0.55372429 0.31217724 0.77207047 0.093665443
0.071447492 0.26241237 0.041627031 0.81073606 -0.57458776 0.11211333 0.12002278
0.075750247 0.26867202 0.036246561 0.86086422 -0.50079584 0.090995334 0.11092488
0.076808825 0.27427682 0.034745045 0.91800082 -0.39359102 0.056047954 0.1132988
0.075848319 0.27736768 0.033561822 0.94916409 -0.3156302 0.021840289 0.10081398
-0.10821969 0.29233679 0.042276014 0.74875981 0.48918167 0.44747749 0.11084792
-0.098032229 0.2851437 0.034083925 0.55241048 0.52240592 0.64978611 0.11783957
-0.089343183 0.28132004 0.030749805 0.46847504 0.50946009 0.7219581 0.11347686
-0.079052687 0.27922654 0.027261054 0.43288681 0.44643793 0.78341913 0.1068991
-0.072002113 0.28068754 0.023284173 0.4560031 0.41358435 0.78831983 0.099136062
-0.065208621 0.27885836 0.0212007 0.47703636 0.39897165 0.78317803 0.093546547
0.078517504 0.27465144 0.041027658 0.90356171 -0.41569704 0.10666014 0.11017587
0.080394499 0.2830725 0.035673145 0.95722759 -0.28483188 0.061439805 0.10072523
0.079118751 0.28590506 0.035216659 0.9739731 -0.22594133 0.033668902 0.092430487
0.079088308 0.29152539 0.038358126 0.9891122 -0.14914887 0.0090312175 0.074833088
-0.1119775 0.30131647 0.040564712 0.79264134 0.43521369 0.42710531 0.11843336
-0.10923643 0.29413325 0.041164223 0.740843 0.47997773 0.4700624 0.11664169
-0.10376158 0.29345694 0.034052502 0.61234558 0.4991647 0.6131795 0.12095747
-0.097606033 0.29122519 0.028933877 0.51318246 0.48913807 0.70540446 0.12842333
-0.089002088 0.28930837 0.02481886 0.42494908 0.45050481 0.78532588 0.11775824
-0.080849752 0.28829265 0.022586573 0.38143361 0.42516828 0.82089442 0.11047459
0.082046673 0.29331926 0.036007438 0.98396075 -0.17122625 0.05655659 0.081553936
0.080305636 0.29535618 0.034918472 0.99067831 -0.13839309 0.0047248197 0.070986442
-0.11508987 0.30997601 0.037679411 0.8316471 0.34829593 0.43268096 0.12288636
-0.1133133 0.30548897 0.03677284 0.7805596 0.3801972 0.49624002 0.12933743
-0.10945264 0.30319467 0.032415524 0.68071234 0.404172 0.61098373 0.13422288
-0.10059587 0.29830149 0.025643893 0.5328694 0.42826739 0.73008472 0.13669498
-0.092231624 0.29996264 0.020151418 0.41263834 0.39734834 0.82004726 0.13336471
-0.0789738 0.29419553 0.018450681 0.37509367 0.38034761 0.8456499 0.11523955
-0.075741112 0.29508036 0.016833685 0.40147063 0.35830489 0.84301859 0.11210597
0.083106846 0.30477619 0.035338964 0.99668908 -0.084244236 0.0068839961 0.060115725
0.082531333 0.30490011 0.034350939 0.99655944 -0.087341852 -0.0049576745 0.056578804
0.081712723 0.30993792 0.035140619 0.99785352 -0.053408645 -0.043843258 0.048530579
-0.12208039 0.32295036 0.043217618 0.9566021 0.19554462 0.21735057 0.10307055
-0.11817053 0.3174749 0.037396457 0.86813641 0.27430204 0.41367042 0.1277502
-0.11466361 0.31349638 0.032894723 0.77585137 0.33213636 0.53643924 0.13974161
-0.11195356 0.31156644 0.028796591 0.68683887 0.36329836 0.62954319 0.14407362
-0.10529298 0.30853242 0.023268426 0.58580816 0.34536698 0.73379689 0.14361919
-0.095376514 0.30820522 0.01731544 0.43116125 0.36083144 0.8278231 0.14431895
-0.085797638 0.30539033 0.016065726 0.37867782 0.34273037 0.86040485 0.12406055
-0.078504138 0.30991918 0.012405202 0.37045825 0.30449617 0.87806886 0.12399227
0.08342059 0.31383514 0.0348882 0.99874163 -0.050437111 -0.032683223 0.049913347
0.083015248 0.31581414 0.035224978 0.99872458 -0.029935675 -0.04694403 0.049525872
0.081719242 0.31330049 0.035612915 0.99823707 -0.038920891 -0.049839258 0.047178533
-0.12164974 0.32846111 0.040660009 0.954799 0.10927208 0.27747983 0.11418078
-0.11994846 0.32467416 0.037296042 0.90279937 0.19099826 0.38538566 0.12912288
-0.11884435 0.32310456 0.034466527 0.85873258 0.2157578 0.46482119 0.14113621
-0.11360461 0.31940064 0.02531605 0.70332724 0.30664751 0.64150095 0.15288053
-0.10752786 0.31778076 0.02068519 0.59971786 0.32866931 0.7306487 0.14248568
-0.099244311 0.31703243 0.015211158 0.45829529 0.3365536 0.82349169 0.14491151
-0.081896089 0.3150278 0.012365235 0.35632014 0.3237415 0.87726134 0.12597269
0.083539441 0.32295746 0.039024293 0.99854338 -0.022877263 -0.053167433 0.049898118
0.082987964 0.32573599 0.035616122 0.9956665 -0.014840192 -0.098548643 0.054418735
-0.12148403 0.33534938 0.040773369 0.97059935 -0.02167087 0.24166788 0.11002057
-0.12062612 0.33596408 0.037112091 0.94441062 0.039905228 0.3275544 0.12917252
-0.11879253 0.33351725 0.030654443 0.88415033 0.11843643 0.4522019 0.14630295
-0.1130003 0.32988232 0.019026576 0.68943876 0.21254992 0.69251472 0.16142775
-0.11084896 0.33204475 0.015749294 0.65207022 0.2078013 0.72954249 0.16301392
0.082803376 0.33330569 0.035166208 0.98813975 -0.0090416726 -0.15729494 0.05363559
0.082906179 0.33457562 0.036200821 0.98764396 -0.0049302597 -0.16031931 0.058500577
-0.11857589 0.3425445 0.036364119 0.96849555 -0.078611776 0.24015357 0.10861686
-0.11862032 0.34377256 0.036960907 0.96126819 -0.069056965 0.2687383 0.11946674
0.082170881 0.34429598 0.033987172 0.96712351 0.011419933 -0.25747988 0.067761317
0.08199963 0.3443 0.034951217 0.96677566 -0.0056431992 -0.26031885 0.074899249
-0.11623961 0.3493804 0.033330157 0.96492738 -0.14363709 0.22258295 0.10689928
-0.11785591 0.35302272 0.037638426 0.96258146 -0.16234761 0.21918945 0.10608309
-0.11834723 0.35804486 0.037544869 0.94658238 -0.17474739 0.27145189 0.11312197
0.080859631 0.35528392 0.033639427 0.93342263 -0.0096382108 -0.36237568 0.075374901
0.081212275 0.35378638 0.034495234 0.93860054 -0.024640325 -0.34740347 0.076807886
-0.11821228 0.35848251 0.041366071 0.96233326 -0.21814951 0.16478139 0.081626512
-0.11615094 0.36636913 0.03452545 0.92690051 -0.23956284 0.28937823 0.10717366
-0.11426102 0.36805224 0.027953252 0.90358931 -0.22237022 0.36708444 0.13460222
-0.11452072 0.3710278 0.025270276 0.88201982 -0.19907005 0.4295015 0.13675047
0.081065103 0.36501637 0.03336389 0.90041512 -0.045542892 -0.4350279 0.085157424
0.0831303 0.36830962 0.036590002 0.88198525 -0.090969086 -0.46400556 0.097086124
-0.11360651 0.37241924 0.03699024 0.90966403 -0.35130268 0.22317058 0.090389527
-0.11361383 0.37334862 0.035078295 0.90960085 -0.33888221 0.24097709 0.086762488
-0.11226521 0.37777087 0.032406099 0.89207697 -0.33557284 0.3035281 0.098262116
0.080292493 0.37434784 0.032548867 0.85642618 -0.070690721 -0.51334232 0.091907635
0.082331114 0.37528285 0.035383862 0.84493488 -0.1036388 -0.52574646 0.090378068
0.08830449 0.37424737 0.04523252 0.81962609 -0.18529688 -0.5421868 0.10249536
0.091469899 0.37851754 0.047911014 0.79177099 -0.18623225 -0.58204001 0.10420907
0.097663254 0.3854067 0.052567337 0.73135513 -0.27279222 -0.6256144 0.13138308
-0.11095787 0.37897217 0.037480582 0.88849288 -0.39758864 0.22928846 0.081489533
-0.10923614 0.38164237 0.034152169 0.88712269 -0.39461207 0.23974368 0.076154239
-0.10841054 0.38539514 0.034187078 0.88509321 -0.38466346 0.26230186 0.082009383
0.082051449 0.38436109 0.033077728 0.81729794 -0.1305117 -0.56200051 0.099222094
0.082413606 0.3836278 0.034173198 0.81584167 -0.12660377 -0.56442833 0.094027929
0.087639652 0.38679957 0.040319327 0.79127884 -0.18504201 -0.58299899 0.10050739
0.094725817 0.38791421 0.048437066 0.78558993 -0.21251649 -0.5814175 0.11475571
0.097360268 0.39024037 0.050490011 0.76283282 -0.23150805 -0.60382175 0.13453797
0.1031997 0.39109772 0.053434674 0.77333862 -0.20925035 -0.59953749 0.13311191
-0.10863446 0.38529184 0.040406287 0.88866282 -0.38871413 0.24351022 0.076073363
-0.1062296 0.39006701 0.038050741 0.88400567 -0.38792911 0.26124364 0.075801387
-0.10566387 0.39273804 0.038353704 0.89050245 -0.38470474 0.24332675 0.075424798
-0.10208923 0.39832085 0.032974862 0.87856144 -0.37974602 0.28986621 0.072826035
-0.099614479 0.40215766 0.028797362 0.8682943 -0.39000347 0.30675945 0.075155765
0.081664197 0.39438957 0.030008135 0.79856473 -0.15562649 -0.58145869 0.098834567
0.086921103 0.39558601 0.035934437 0.78848791 -0.17842284 -0.5888111 0.10234258
0.090479165 0.39558709 0.040371414 0.79265571 -0.18403091 -0.58162248 0.10389695
0.093588345 0.3989265 0.043940898 0.7976138 -0.18473271 -0.5749014 0.11236789
0.097389102 0.39649239 0.048024796 0.74958086 -0.20759501 -0.62861383 0.1259494
0.10269416 0.39712441 0.052667364 0.79564548 -0.17965527 -0.57904589 0.12701182
-0.10221853 0.39970815 0.041975483 0.87747967 -0.39465126 0.272919 0.073984526
-0.097196974 0.40797389 0.034524314 0.87882918 -0.38245007 0.28574049 0.072289005
-0.095464341 0.41103724 0.030054785 0.87431854 -0.37803558 0.30604827 0.073361397
0.08337485 0.40356606 0.028436748 0.79521435 -0.16785756 -0.58288229 0.10041735
0.087553404 0.40484959 0.033044271 0.79743195 -0.16596049 -0.58065057 0.10352368
0.091199592 0.40564966 0.038107257 0.80237281 -0.15577063 -0.57680321 0.11052991
0.094157629 0.40940788 0.041188546 0.8120892 -0.1356575 -0.56795019 0.11381377
0.098842144 0.40907171 0.048272815 0.84259129 -0.11509611 -0.52636319 0.12862255
-0.094530553 0.41458452 0.035112847 0.87637144 -0.39487097 0.27762491 0.073249847
-0.091668382 0.41948381 0.031215681 0.8679924 -0.3995803 0.29682758 0.074117497
0.081327036 0.41181719 0.022593195 0.79655087 -0.18433635 -0.57594675 0.095318675
0.084915355 0.41168672 0.027467091 0.79938668 -0.19190881 -0.56940043 0.099346176
0.089094684 0.41399416 0.032450531 0.81121045 -0.14216322 -0.56736261 0.10670526
0.092411242 0.41495693 0.036692835 0.81706202 -0.12708044 -0.5624814 0.11079793
0.095901765 0.41539791 0.042095855 0.84427875 -0.088637382 -0.52865076 0.1151134
0.098902546 0.41735351 0.04741716 0.87141359 -0.027435459 -0.49015269 0.13100643
-0.091872916 0.42203987 0.038516212 0.87115556 -0.4174087 0.26130697 0.072694257
-0.089277372 0.42650321 0.034532305 0.86557066 -0.42200276 0.27372026 0.074843444
0.082914822 0.41957778 0.021358756 0.78031015 -0.20585807 -0.59081191 0.11143292
0.086784899 0.42300129 0.025238583 0.78981739 -0.19346614 -0.58219653 0.11213048
0.091287702 0.42472363 0.031735085 0.83429497 -0.12506507 -0.5380466 0.11635733
0.093480512 0.42363426 0.036330737 0.83677965 -0.091971792 -0.54000753 0.11681908
0.095440209 0.42579922 0.040903915 0.86360532 -0.014283552 -0.50410432 0.12833931
0.095861413 0.42233697 0.044388466 0.88274884 0.079365164 -0.46509194 0.13433908
0.098486386 0.41915888 0.044182789 0.91202104 0.1583951 -0.37861526 0.11172167
-0.087053172 0.43061167 0.036567502 0.85386676 -0.46390402 0.23898318 0.073226959
-0.086527772 0.43422759 0.034283236 0.86225677 -0.44952211 0.2412612 0.075658545
0.092422068 0.43284577 0.029919522 0.87777603 -0.062907785 -0.50179404 0.12758508
0.095085904 0.43686748 0.034920812 0.91792166 0.047881883 -0.47692543 0.13204519
0.095369369 0.43669933 0.041415174 0.89664698 0.12298945 -0.43735683 0.13617693
0.093929335 0.42946634 0.041500609 0.87626481 0.09820237 -0.47390085 0.1381122
-0.08269421 0.44058698 0.036376432 0.81269944 -0.55816084 0.21060289 0.069854371
0.092840694 0.4409321 0.028869007 0.96482778 0.09273874 -0.47554564 0.13497412
0.09379255 0.44272825 0.035853956 0.93393946 0.18430379 -0.45218146 0.13982742
0.090992592 0.44340086 0.021520907 1.0082561 -0.026621751 -0.50674587 0.14171192
0.092491113 0.44807211 0.030200755 1.1143575 0.34961548 -0.48629555 0.14927614
0.089443147 0.45301169 0.036787707 1.0825366 0.74922901 -0.38724115 0.14734606
-0.23557521 -0.38087997 0.038853988 0.95318699 -0.036103372 -0.3157405 0.1238079
-0.2354213 -0.38182548 0.049281184 0.87375587 -0.24142548 -0.42273211 0.12565331
-0.23489214 -0.37800932 0.050951228 0.86548078 -0.26517868 -0.43365446 0.13631921
-0.23438819 -0.37624347 0.043432385 0.9085052 -0.17291762 -0.38765302 0.1219193
-0.233914 -0.36992544 0.049059745 0.87174743 -0.24723196 -0.43454781 0.13673098
-0.23235977 -0.35742536 0.048533898 0.80383056 -0.50099903 -0.34801686 0.156002
0.34186497 -0.35920286 0.045524877 -0.53405493 -0.78771049 -0.31324065 0.1584229
0.34768358 -0.3621909 0.049371488 -0.68316013 -0.7280671 -0.5147872 0.16256273
0.35445929 -0.3687962 0.045096058 -0.83388102 -0.60401106 -0.53250337 0.16770105
-0.23263113 -0.36306491 0.041270986 0.91346061 -0.1118532 -0.39484054 0.11596478
-0.23240475 -0.3636857 0.043317497 0.90164244 -0.18348907 -0.39222705 0.13301077
-0.23202629 -0.36068541 0.049375575 0.85521114 -0.27766097 -0.45311484 0.14239106
-0.2316623 -0.35582241 0.049655769 0.81718427 -0.4120605 -0.42025286 0.14044492
0.32770509 -0.35198042 0.050158672 0.74652296 0.58275229 0.32850009 0.14819969
0.33355671 -0.35982108 0.04785984 0.69433177 0.66844559 0.35342485 0.17399
0.33808702 -0.36337239 0.044549707 0.67367309 0.73191673 0.31800562 0.19417445
0.34027076 -0.36747584 0.044445138 0.68729544 0.84786177 0.30235448 0.19808257
0.33882871 -0.36601725 0.041717477 0.85109824 0.67862725 0.29587525 0.17081752
-0.23232758 -0.35529184 0.038150158 0.92412245 -0.11163793 -0.36867529 0.12962569
-0.23125489 -0.35506651 0.040034551 0.90553534 -0.15965946 -0.39397255 0.1436398
-0.23262984 -0.35368884 0.045606881 0.86935973 -0.30159912 -0.4007611 0.15171637
-0.23180819 -0.35109332 0.04659304 0.82852536 -0.38377374 -0.41301137 0.15039985
-0.21234915 -0.33792549 0.060499113 0.63842148 -0.55710971 -0.53672409 0.16626336
0.32571709 -0.34855103 0.051009141 0.79927129 0.47745389 0.36803207 0.15550712
0.32926884 -0.35487252 0.045945287 0.79379511 0.5029816 0.37975499 0.17172173
0.33024013 -0.35672399 0.043573525 0.82687908 0.50310171 0.35768995 0.18298744
0.33121982 -0.35874242 0.040320817 0.88989741 0.48862103 0.30741322 0.20394638
0.33350703 -0.35676444 0.038566891 0.92232811 0.34731984 0.33512351 0.17193876
-0.23008811 -0.34355116 0.037262503 0.9194749 -0.056963455 -0.39027205 0.13997023
-0.22962052 -0.34518281 0.038463771 0.8936128 -0.18291897 -0.41009808 0.15227324
-0.22765738 -0.34571815 0.042002659 0.87557518 -0.17284316 -0.45161316 0.15471675
0.32379439 -0.3426553 0.049562167 0.84678727 0.31223825 0.43183768 0.15879643
0.32443991 -0.34509385 0.046815556 0.84795225 0.29150414 0.44912884 0.16050734
0.32692257 -0.34610274 0.040470932 0.87184411 0.23559041 0.44057414 0.1740391
0.32786787 -0.34645253 0.038008291 0.90058672 0.2030675 0.40710256 0.17897172
0.33151355 -0.34766397 0.037062839 0.91021252 0.20647752 0.38399053 0.16021995
-0.22955719 -0.33757558 0.038069546 0.91416216 -0.037240077 -0.40417477 0.13493909
-0.22672847 -0.3356325 0.039176289 0.90395832 -0.051181085 -0.42466104 0.16305637
-0.22540031 -0.33628324 0.043489687 0.8881802 -0.15461491 -0.43270728 0.16762502
-0.22416338 -0.33450618 0.047381077 0.87273943 -0.23962645 -0.42537957 0.17541493
-0.21816266 -0.32852083 0.057055946 0.7918219 -0.15125057 -0.5927496 0.21970685
-0.21501978 -0.32993314 0.061951783 0.7744233 -0.13062932 -0.62007385 0.22004381
-0.20864266 -0.33130908 0.063629679 0.72826523 -0.063271567 -0.68299937 0.19976087
0.32080033 -0.32965311 0.05421906 0.85703731 0.19797856 0.47581199 0.14108308
0.3222419 -0.33225125 0.049483664 0.84239066 0.15007259 0.51776987 0.15305305
0.32336155 -0.33521205 0.045706857 0.84181577 0.12883145 0.52488524 0.15443599
0.32549137 -0.33634564 0.040716637 0.84686834 0.12744744 0.51678354 0.15706567
0.32828274 -0.33802256 0.036460165 0.88853949 0.11777851 0.44666845 0.15973629
0.33027738 -0.3360576 0.036242452 0.8932457 0.079329208 0.44391167 0.14630347
-0.2279869 -0.32249725 0.038131442 0.90397805 0.015039502 -0.4277184 0.15111776
-0.22654635 -0.32400504 0.03957355 0.91087389 0.012373856 -0.41292721 0.16358447
-0.22537887 -0.32427618 0.042695306 0.89305687 0.07500504 -0.44395998 0.18335544
-0.22429234 -0.32178274 0.046287429 0.87564635 0.089225709 -0.47485963 0.17814271
-0.21719933 -0.32570899 0.058052048 0.81782961 -0.093233608 -0.56888396 0.20795317
-0.21156032 -0.32552007 0.062126324 0.73822856 -0.04814456 -0.67299545 0.20514663
0.31964234 -0.32326996 0.05518185 0.84101677 0.16253859 0.51609325 0.14629856
0.32197306 -0.32417747 0.048789982 0.82383144 0.10326266 0.55735922 0.14521378
0.32373717 -0.326635 0.044350889 0.82208478 0.094635122 0.56146753 0.14543162
0.32474449 -0.32457018 0.041839812 0.8172127 0.052898061 0.57401335 0.14873795
-0.22967201 -0.31333074 0.037868261 0.90862572 0.090023339 -0.40848088 0.15179732
-0.22724535 -0.31535104 0.040328939 0.90393996 0.077622324 -0.42081487 0.16375372
-0.22758918 -0.31191477 0.042718984 0.88230747 0.069931313 -0.46562243 0.17812486
-0.22350314 -0.3149876 0.049370058 0.83578986 0.085816115 -0.54232246 0.18636575
-0.21246383 -0.32226285 0.058287416 0.75410724 0.15030858 -0.64209616 0.19185002
0.31805214 -0.31079832 0.054573935 0.81687391 0.21642871 0.53472507 0.16053586
0.32008523 -0.3138347 0.050560862 0.80648619 0.17798689 0.56383538 0.15531163
0.32337621 -0.31615207 0.044771533 0.80306816 0.12669159 0.58231634 0.15923911
0.32498261 -0.31488383 0.041399013 0.8021462 0.039852969 0.59587586 0.14787844
0.32933912 -0.31430447 0.035125833 0.8490116 0.022197433 0.52811176 0.15817168
0.33161429 -0.31222996 0.03072249 0.88195169 0.010982641 0.47196418 0.15208451
-0.23779193 -0.30080378 0.035603195 0.91777515 0.066342995 -0.39158949 0.1046642
-0.23593728 -0.30124873 0.036396157 0.9114489 0.076388083 -0.40487877 0.11171727
-0.23199593 -0.30581185 0.039276782 0.89275664 0.066367611 -0.44616765 0.1263839
-0.22941631 -0.30392379 0.042296298 0.87331122 0.073661476 -0.48182574 0.15338676
-0.22833163 -0.30376011 0.043653391 0.85427821 0.069896005 -0.51526952 0.17826428
0.31658399 -0.2995162 0.051819015 0.77249795 0.36816368 0.51742071 0.17234707
0.31834221 -0.30486166 0.050733726 0.78442961 0.26772976 0.55945975 0.16386579
0.32193589 -0.30905256 0.044172142 0.75987023 0.15132281 0.63227212 0.15863959
0.32563481 -0.30621645 0.038781382 0.77976954 0.11914571 0.61464828 0.16641314
0.32857352 -0.30839959 0.037325647 0.81723702 0.018002668 0.57630426 0.15751769
-0.23894751 -0.29775053 0.036079094 0.91255909 0.067080684 -0.40350023 0.096977212
-0.23365022 -0.29385021 0.038844228 0.90469748 0.05548536 -0.42281696 0.13583687
-0.23031005 -0.29424611 0.042034406 0.87873328 0.031824466 -0.4763464 0.16608389
-0.22713159 -0.29476708 0.047851641 0.87464207 0.069032542 -0.48016843 0.17744583
-0.22391841 -0.29469234 0.054462127 0.81984198 0.11774102 -0.56049573 0.19337462
-0.22181119 -0.29478425 0.05902255 0.79222399 0.13070066 -0.59654564 0.20330179
0.30229798 -0.28218973 0.055541992 0.73726457 0.5540213 0.3867639 0.15033531
0.30827188 -0.28555152 0.051977839 0.72786409 0.54149294 0.42124423 0.16948995
0.31220597 -0.29042187 0.051100969 0.71586555 0.46817088 0.5180704 0.18583973
0.31956947 -0.2969344 0.042635307 0.73129928 0.25547117 0.63249463 0.18984467
0.32063568 -0.29402629 0.040009275 0.78120869 0.16560715 0.60204875 0.18770902
-0.23176269 -0.28558239 0.041026995 0.91652536 -0.02283149 -0.4000847 0.14606935
-0.22980225 -0.28569618 0.043451939 0.90793669 0.012587554 -0.41939619 0.162312
-0.22807063 -0.28476545 0.046696529 0.89204866 0.057199184 -0.44903097 0.17130837
-0.22583291 -0.28684345 0.051963717 0.84154308 0.084741257 -0.53418618 0.18884675
0.29172951 -0.2662493 0.046303444 -0.67838871 -0.69441581 -0.24107616 0.14628467
0.29854864 -0.2714707 0.048127528 -0.68047422 -0.67035621 -0.29608199 0.17060727
0.3060506 -0.27929288 0.050737128 0.70937729 0.56124485 0.4267973 0.19559939
0.30935913 -0.28418842 0.049427107 0.71303892 0.45365191 0.53470844 0.20594674
0.32146263 -0.2917932 0.038340263 0.80753428 0.19773431 0.55585849 0.18200503
0.32204339 -0.28864691 0.039094981 0.84806329 0.15377551 0.5071919 0.17651379
-0.23760298 -0.27288902 0.03612059 0.93521208 0.040650204 -0.35207152 0.11477143
-0.23277934 -0.27562076 0.038862068 0.93225574 -0.013822814 -0.36222485 0.14872323
-0.23019435 -0.27407295 0.04273748 0.91829109 -0.029976949 -0.39543399 0.15192081
-0.22712103 -0.27681684 0.04827784 0.89213651 -0.027103815 -0.45139199 0.17216654
-0.22577715 -0.27633095 0.051559988 0.86745369 0.041027814 -0.49653229 0.19280231
0.28190181 -0.2548182 0.046074077 -0.64303118 -0.7478497 -0.16655688 0.15806746
0.2896522 -0.25906566 0.0489089 -0.6784004 -0.69764048 -0.23211163 0.19093898
0.29554066 -0.26484349 0.048710097 -0.68534064 -0.67119294 -0.28360644 0.19496593
0.30059317 -0.27122366 0.051722657 0.66023242 0.54264128 0.51963556 0.23270345
0.30325833 -0.27192101 0.049047977 0.70871657 0.48068863 0.51687181 0.24230024
0.32411355 -0.28261504 0.035124917 0.89334136 0.25555992 0.37061492 0.15651558
-0.23459078 -0.26267231 0.036569934 0.92517549 -0.018275714 -0.37945393 0.13927272
-0.23126826 -0.26732612 0.040984564 0.92085141 -0.009572044 -0.39035556 0.15126739
-0.22908263 -0.26264116 0.043273196 0.91804391 -0.032164589 -0.39552283 0.17072892
-0.22802858 -0.26629111 0.046424404 0.91777068 -0.030332837 -0.3964259 0.18663919
-0.22603562 -0.26593882 0.051503435 0.87320721 -0.010723219 -0.48870969 0.20228767
-0.22227566 -0.26302904 0.056037098 0.83187503 -0.07479158 -0.55076981 0.20786059
0.26920974 -0.24569868 0.049955856 -0.58355844 -0.79374546 -0.17171653 0.16420516
0.27898332 -0.24922068 0.048031293 -0.61403841 -0.77635235 -0.14482751 0.18588321
0.28472045 -0.25233296 0.049660593 -0.61184889 -0.75266743 -0.24466513 0.20807876
0.29214972 -0.25890583 0.054070111 0.67472011 0.64504093 0.36277643 0.23710375
0.2982896 -0.26039892 0.049110927 0.70167464 0.63323021 0.32980144 0.26648861
0.30075112 -0.26423404 0.04682871 0.73295212 0.57457322 0.36547881 0.26350886
0.30561501 -0.27295285 0.044658877 0.75933361 0.40582263 0.50899118 0.24083856
0.32054025 -0.27202615 0.036182452 0.8811422 0.40036869 0.25345445 0.14675024
0.32120255 -0.2759501 0.036958929 0.87094593 0.37982294 0.31283545 0.1542825
-0.23497052 -0.25571191 0.037741426 0.93063909 -0.020291436 -0.36583725 0.12781923
-0.22970119 -0.25468984 0.041644335 0.91232556 0.016888786 -0.40924013 0.17023063
-0.2261702 -0.2562705 0.049846847 0.88532424 0.00064135209 -0.46518418 0.19196881
-0.22772801 -0.25254297 0.049716517 0.89983976 -0.0087012462 -0.43690035 0.2154751
-0.22179806 -0.25723031 0.057581574 0.85927027 0.011140442 -0.51276076 0.21596804
0.24956417 -0.23289628 0.045387335 -0.46233737 -0.88684362 -0.012418839 0.16847631
0.25537664 -0.23532572 0.043263584 -0.45986646 -0.88806331 0.00024069878 0.17271732
0.26320919 -0.23868576 0.045423873 -0.46013328 -0.88537502 -0.066601768 0.18629476
0.27315974 -0.24182393 0.048977278 -0.57861292 -0.81282824 -0.071273632 0.2168206
0.27935848 -0.24469334 0.043477699 -0.5800904 -0.81459016 0.0048645837 0.22858387
0.28845212 -0.25088018 0.048482131 -0.6575256 -0.73622376 0.16063212 0.26624057
0.30563742 -0.26305804 0.042118259 0.77850032 0.6137954 0.13332132 0.22172615
0.31140605 -0.26261336 0.041425299 0.8306036 0.52534753 0.18703212 0.17789458
0.31730559 -0.26650679 0.039876617 0.82499021 0.5273388 0.20523103 0.14585057
0.3209424 -0.26910162 0.036862981 0.86668324 0.44314399 0.23085871 0.1306293
-0.23405728 -0.2433513 0.039531805 0.93945688 0.031768203 -0.3417137 0.13029809
-0.23177482 -0.24447075 0.039098747 0.94080412 0.041168325 -0.33683237 0.16041102
-0.22953606 -0.24453163 0.043052398 0.92463368 0.030600458 -0.37971595 0.16651747
-0.22682467 -0.24340771 0.050403938 0.93381131 0.052998252 -0.35427466 0.19031732
-0.22794926 -0.24502476 0.050880358 0.91260713 0.0042070146 -0.40973359 0.2303441
0.22855945 -0.22709979 0.044677515 -0.67434353 -0.73649037 -0.05469051 0.14312722
0.23628874 -0.22870736 0.047527976 -0.55726248 -0.82920933 -0.044262737 0.15154929
0.244331 -0.2294758 0.043198559 -0.49467027 -0.86905426 0.015787398 0.18056646
0.25930408 -0.23537143 0.043954644 -0.36003044 -0.92443818 0.12589483 0.22187233
0.26723006 -0.2392657 0.047674745 -0.40294078 -0.87392694 0.27198771 0.24750572
0.29190353 -0.25300243 0.04687696 -0.67028248 -0.74203414 0.022225475 0.25788924
0.29839084 -0.25806823 0.046421617 -0.6785605 -0.73048335 0.082982495 0.25310233
0.3058376 -0.25452784 0.043792114 0.71537954 0.69503444 0.072541341 0.18051268
0.31019631 -0.25643653 0.042217404 0.77070808 0.62204653 0.1383937 0.16189283
0.31598017 -0.26074463 0.039821237 0.8083902 0.56394011 0.16895318 0.14371137
-0.23285523 -0.2351156 0.040590141 0.92557049 0.024524609 -0.37836954 0.13926476
-0.23115657 -0.2349429 0.038820844 0.92358297 0.024948141 -0.38289922 0.17037253
-0.2289253 -0.23427629 0.044269215 0.9482711 0.025557097 -0.31693664 0.18125546
-0.22943573 -0.23103382 0.044632208 0.97564811 -0.06583526 -0.20922863 0.21278998
-0.22959165 -0.23863266 0.047785934 0.95523077 0.015436092 -0.29547694 0.22822709
-0.22747716 -0.23550959 0.052680504 0.91807139 -0.029096685 -0.39603344 0.22812013
0.22386797 -0.22289526 0.04537195 -0.74453926 -0.67038631 -0.032970518 0.1598897
0.23371513 -0.22480379 0.044018921 -0.6103276 -0.78874618 0.074026212 0.20034499
0.23948659 -0.22760876 0.043350562 -0.52656192 -0.83908099 0.13742328 0.18920164
0.24744581 -0.23237713 0.042082015 -0.39091721 -0.89067096 0.23270752 0.20226331
0.25570521 -0.23569198 0.047838043 -0.28893608 -0.90649468 0.30802575 0.22308399
0.27426675 -0.23960538 0.046805896 -0.29262924 -0.86696875 0.4036341 0.23381357
0.27873406 -0.24222064 0.047805116 -0.36263174 -0.87231439 0.32866776 0.24050704
0.28482383 -0.24590035 0.046649292 -0.57170665 -0.81954932 0.058913469 0.23161556
0.29384857 -0.2469729 0.043821167 -0.64069021 -0.76877892 0.0030958222 0.19526951
0.30192909 -0.24842589 0.044688746 -0.65842468 -0.74905944 -0.074088611 0.17407525
0.30874363 -0.2502712 0.045141306 -0.6612286 -0.74867553 -0.049786538 0.13913682
-0.23427294 -0.222278 0.037853524 0.93121505 0.053982042 -0.36048532 0.13650273
-0.23186029 -0.22638424 0.03785855 0.94500685 0.0043060952 -0.32732713 0.16299595
-0.2288636 -0.22434489 0.043638341 0.97024614 -0.0093137445 -0.24206367 0.19123697
-0.22877878 -0.22584555 0.045691222 0.96781492 -0.075051449 -0.24047849 0.20984778
-0.22829773 -0.22076313 0.048942067 0.97006798 -0.10908543 -0.21723172 0.21469326
-0.22725125 -0.22215889 0.046778843 0.97215176 -0.10584831 -0.20962472 0.20700271
0.22204256 -0.21865578 0.04694102 0.95886254 0.2769168 0.074240312 0.17790093
0.22395438 -0.22002281 0.04694568 0.87186247 0.49505121 0.012840311 0.19681914
0.22589979 -0.22116435 0.044245061 -0.7331506 -0.67807019 0.094741032 0.21552633
0.23438473 -0.22880161 0.044409078 -0.44698185 -0.83402449 0.32481217 0.20798774
0.24755718 -0.23298268 0.046728142 -0.29341599 -0.88356566 0.3656404 0.19373955
0.25155774 -0.23293239 0.04828769 -0.24487144 -0.88279992 0.40167233 0.18908669
0.26216823 -0.23492832 0.04916732 -0.1735568 -0.8949523 0.41121614 0.21414593
0.27272737 -0.23695965 0.048721246 -0.21129338 -0.91066265 0.35503337 0.22092536
0.27757949 -0.24011165 0.049018435 -0.32727709 -0.90140796 0.2838254 0.23010123
0.28586996 -0.2397283 0.044679519 -0.51642126 -0.85395622 0.068251431 0.17225116
0.29168922 -0.24192126 0.044566277 -0.61135507 -0.79168332 0.028406229 0.16332604
-0.23107366 -0.21672943 0.040240053 0.95101953 -0.004929156 -0.30919993 0.16288039
-0.2299097 -0.21320368 0.042307332 0.96459615 -0.011555356 -0.26353315 0.17044616
-0.22831716 -0.21516345 0.043763775 0.98309046 -0.072145164 -0.16875507 0.21465008
-0.22965871 -0.21354455 0.044610962 0.98944527 -0.12820834 -0.069371268 0.21904588
-0.22813401 -0.21259095 0.04366776 0.97992861 -0.19623953 -0.038008731 0.22170572
-0.22416379 -0.20564699 0.042308465 0.96601939 -0.25003827 -0.071761951 0.19713563
0.22085503 -0.21573642 0.049071055 0.99610502 -0.069522135 0.059435572 0.12817658
0.22171304 -0.21365219 0.043919932 0.99891222 0.050421543 -0.0049280389 0.13565622
0.22266197 -0.2137565 0.042551324 0.96606392 0.25147521 -0.06281957 0.18224007
0.22347406 -0.21735087 0.049042981 0.85669798 0.50470847 -0.11737013 0.22206222
0.23005103 -0.22595312 0.048877958 -0.54583693 -0.75988483 0.3535569 0.21345542
0.24255833 -0.22944687 0.051546365 -0.31353664 -0.87189937 0.3772482 0.19876933
0.2497133 -0.22999853 0.051412776 -0.27855131 -0.87685692 0.39367828 0.18735705
0.26174405 -0.23225738 0.047236163 -0.13625938 -0.90812707 0.39718699 0.1956501
0.280983 -0.23614897 0.046355084 -0.41115391 -0.90167451 0.1351452 0.17364621
-0.22829336 -0.20647933 0.046554103 0.97753263 -0.12130827 -0.17369814 0.19860008
-0.22924186 -0.2045511 0.045411065 0.9786672 -0.20642583 -0.00010244318 0.21759558
-0.22581778 -0.2020434 0.041912153 0.94867182 -0.29884112 0.10566214 0.21639049
-0.2222255 -0.19787242 0.042225666 0.9474619 -0.32409331 0.012187233 0.20313403
0.22195041 -0.20716164 0.044479296 0.99548179 0.07826376 -0.059655283 0.13401884
0.22205433 -0.202264 0.043778908 0.97695839 0.17565222 -0.12239067 0.15704566
0.21960935 -0.20295605 0.045104627 0.94508606 0.27344644 -0.1808752 0.18067989
0.24995014 -0.22628854 0.050366975 -0.28324965 -0.9194023 0.28089306 0.1564699
0.25670087 -0.2268524 0.053818028 -0.26652417 -0.92991352 0.25668254 0.15004569
-0.22753137 -0.19857775 0.045668807 0.98058945 0.070132978 -0.18425159 0.19766867
-0.22665012 -0.19556633 0.04543053 0.98661536 -0.15987056 -0.050318655 0.22972566
-0.22707562 -0.19428033 0.04599452 0.94914263 -0.29823098 0.10667618 0.23156945
-0.22360314 -0.19102229 0.042918567 0.90164822 -0.36860496 0.2279769 0.20144229
-0.22005992 -0.18934436 0.041866984 0.91488224 -0.37184745 0.16746663 0.21004452
0.21977875 -0.19428861 0.044653997 0.96602201 0.20887887 -0.15378025 0.13608633
0.21824159 -0.19681349 0.046224523 0.94525236 0.27205923 -0.18349123 0.16293108
0.21803966 -0.20565343 0.052212853 0.85926569 0.46801502 -0.21239004 0.19949771
0.23110615 -0.21692806 0.054865509 -0.59275138 -0.75690788 0.27652931 0.16521032
-0.23427531 -0.17871822 0.045292504 0.93918371 0.27627379 -0.20785604 0.16954036
-0.22614674 -0.18473482 0.046196762 0.98521 0.12826245 -0.11765191 0.2326265
-0.22500466 -0.1864769 0.044371638 0.93096226 -0.31985679 0.18096906 0.25210446
-0.21932425 -0.1825335 0.041575171 0.85525137 -0.41316628 0.31445694 0.20276389
-0.21788435 -0.18240958 0.042294823 0.88951522 -0.41704071 0.1911664 0.17810841
-0.21350075 -0.1798425 0.040996157 0.89290237 -0.4365986 0.11843186 0.16977997
0.21655576 -0.18527044 0.045520235 0.93742299 0.29479626 -0.18626721 0.11233
0.21602643 -0.18749128 0.046598304 0.92877018 0.30573553 -0.21164949 0.12054652
