# .PCD v0.7 - Point Cloud Data file format
VERSION 0.7
FIELDS x y z normal_x normal_y normal_z curvature
SIZE 4 4 4 4 4 4 4
TYPE F F F F F F F
COUNT 1 1 1 1 1 1 1
WIDTH 558
HEIGHT 1
VIEWPOINT 0 0 0 1 0 0 0
POINTS 558
DATA ascii
0.041401811 -0.42103219 -0.08176665 -0.0073998421 -0.082881033 -0.99653196 0.15941113
0.050945826 -0.42713419 -0.089819774 0.1535925 -0.10621823 -0.98240876 0.164598
0.062599495 -0.42651761 -0.085922219 0.50092262 -0.15363786 -0.85174638 0.16657983
0.078328624 -0.42553172 -0.084099345 0.68707085 -0.18457708 -0.70275521 0.14963102
0.084084414 -0.42459571 -0.084918268 0.75014669 -0.18828619 -0.63389927 0.13682964
0.095277429 -0.42455205 -0.08602763 0.82013249 -0.20504583 -0.53417128 0.11138878
-0.12552156 -0.415892 -0.084957041 -0.81430495 -0.21069764 -0.54084557 0.1171978
-0.11647473 -0.41654778 -0.084866226 -0.78289622 -0.20929244 -0.58589268 0.14406504
-0.10344581 -0.41540906 -0.083220102 -0.66561949 -0.19239013 -0.72106636 0.18446808
-0.09461657 -0.41498342 -0.08587759 -0.34507936 -0.12683326 -0.92996424 0.19837977
-0.084662288 -0.4137156 -0.088149436 -0.048145305 -0.062336568 -0.99689329 0.18182831
-0.074139006 -0.4137437 -0.08773575 0.090101607 -0.034400214 -0.99533832 0.15512778
-0.065058112 -0.4146429 -0.083936699 0.11471024 -0.01867649 -0.99322343 0.13927324
-0.016196497 -0.41391313 -0.085803688 -0.0052920566 0.054841276 -0.99848104 0.10865276
-0.0067096744 -0.41744503 -0.081125513 -0.076317899 0.049102072 -0.99587375 0.10959771
0.0027373766 -0.41377369 -0.081815183 -0.14523914 0.018808478 -0.9892177 0.1021354
0.01963383 -0.41433942 -0.082699656 -0.17343578 -0.019858554 -0.98464495 0.11016458
0.026422566 -0.41519403 -0.083589196 -0.17321384 -0.04006109 -0.98406917 0.12059753
0.03504499 -0.41362515 -0.082939684 -0.10707363 -0.064627759 -0.9921484 0.14262295
0.046336297 -0.41971847 -0.087557271 0.031924255 -0.092646889 -0.99518704 0.15753116
0.052823432 -0.41464922 -0.088759296 0.19994399 -0.10683677 -0.97396529 0.16729966
0.086549982 -0.4187271 -0.085738309 0.75841069 -0.19884831 -0.62070316 0.13517205
0.094619215 -0.41536829 -0.085826725 0.80345488 -0.20243882 -0.55989164 0.11882956
0.10237388 -0.41879749 -0.081982903 0.84910703 -0.21024828 -0.48457512 0.10257435
-0.13031793 -0.4013865 -0.083955035 -0.81504828 -0.23608913 -0.52911079 0.11243024
-0.12894237 -0.40742362 -0.083374977 -0.82234991 -0.23187189 -0.51959211 0.11691768
-0.10622807 -0.40317953 -0.081783593 -0.66262037 -0.20241775 -0.7210834 0.18152981
-0.097320639 -0.40637827 -0.08372853 -0.40386325 -0.14368081 -0.90346569 0.1961911
-0.08859688 -0.40418303 -0.085789926 -0.10052411 -0.09003938 -0.990852 0.18391597
-0.077096157 -0.40431488 -0.08354082 0.03959785 -0.049720153 -0.99797785 0.16407663
-0.066975802 -0.40517905 -0.085195147 0.13571121 -0.028726507 -0.99033189 0.13525915
-0.015115693 -0.40883312 -0.083179794 -0.022486407 0.037996434 -0.99902481 0.11258142
0.0015216602 -0.4005172 -0.080702111 -0.16228388 -0.0047246879 -0.98673278 0.10549843
0.025693677 -0.40680403 -0.082971513 -0.1944616 -0.045836389 -0.97983861 0.12066925
0.034333944 -0.40462771 -0.08212094 -0.1359466 -0.049651999 -0.98947114 0.14139651
0.044483103 -0.40216875 -0.088180713 -0.030046191 -0.077482596 -0.9965409 0.15253094
0.065315142 -0.4023484 -0.089367226 0.39736143 -0.14826305 -0.90560585 0.16414985
0.087519228 -0.40896338 -0.083876967 0.75141633 -0.19833647 -0.62931401 0.13617982
0.095969021 -0.40570652 -0.084482841 0.80377614 -0.20545475 -0.55832982 0.12092508
0.10310289 -0.4050121 -0.084814593 0.84431028 -0.20117263 -0.49665853 0.10578955
-0.12447119 -0.39511415 -0.083449386 -0.79230154 -0.22916776 -0.56545597 0.12546085
-0.11411212 -0.39608794 -0.087175831 -0.71804589 -0.20961268 -0.66368103 0.15320462
-0.1020532 -0.39410669 -0.089861639 -0.37497365 -0.14668751 -0.91535652 0.1851849
-0.095296077 -0.39598528 -0.082690001 -0.27522534 -0.12892108 -0.95269632 0.19253372
-0.084437728 -0.3963182 -0.087019205 0.025678482 -0.075781666 -0.99679375 0.16726604
-0.075734034 -0.39583558 -0.083982117 0.097495914 -0.060698092 -0.99338329 0.15040125
-0.067703448 -0.3948037 -0.083712205 0.14179754 -0.050529204 -0.98860526 0.13272573
0.0020924278 -0.392003 -0.086255163 -0.16465288 -0.017037258 -0.98620433 0.091310292
0.027518541 -0.39230201 -0.081930451 -0.19200349 -0.050348964 -0.98010182 0.1233225
0.032039355 -0.3948822 -0.086916849 -0.17551439 -0.056730159 -0.98284096 0.12150067
0.048071936 -0.39695919 -0.089143872 0.032378104 -0.088109568 -0.99558437 0.15707679
0.053661421 -0.39077023 -0.08940237 0.11602341 -0.098262489 -0.98837394 0.15861917
0.087331474 -0.39068809 -0.080796592 0.73422146 -0.19917779 -0.64903551 0.14372574
0.09498325 -0.39434198 -0.086414061 0.7821635 -0.19634618 -0.59132767 0.12820238
0.10482901 -0.39533827 -0.083443761 0.85451961 -0.19718711 -0.48053455 0.10398577
0.11421952 -0.39445677 -0.08512193 0.8759498 -0.19915029 -0.43937579 0.094515167
-0.14105864 -0.38360739 -0.089605093 -0.81535822 -0.24112658 -0.52635449 0.090183623
-0.13407896 -0.38629436 -0.08493989 -0.81098014 -0.23252989 -0.53688079 0.10284051
-0.12730737 -0.38610768 -0.086353503 -0.77691466 -0.23295888 -0.58492202 0.12352727
-0.096319303 -0.38471204 -0.084748052 -0.19477448 -0.13024102 -0.97216266 0.18648282
-0.085641451 -0.38545614 -0.08323513 -0.0073810886 -0.10038651 -0.99492115 0.16980243
-0.075540371 -0.38303193 -0.08378756 0.097345784 -0.082685061 -0.99180996 0.14480932
-0.06967707 -0.3861258 -0.083729863 0.15122688 -0.073149003 -0.98578882 0.13082629
-0.0034148602 -0.38655415 -0.084181488 -0.15239859 -0.022411684 -0.98806494 0.1007136
0.0031570541 -0.38526806 -0.083869062 -0.18562882 -0.037643805 -0.98189855 0.092339747
0.014837144 -0.3823112 -0.085198358 -0.22478993 -0.065526083 -0.97220153 0.08604338
0.036861826 -0.38420534 -0.081979789 -0.14373502 -0.07979662 -0.98639381 0.14474644
0.048430234 -0.38189816 -0.080469489 0.0054375315 -0.099346966 -0.99503797 0.17071347
0.084536687 -0.38512486 -0.086054325 0.65500885 -0.17873286 -0.73417848 0.15193616
0.096233755 -0.38832885 -0.083417013 0.79640931 -0.19002691 -0.57412714 0.12768194
0.10360266 -0.38289735 -0.085183002 0.83539629 -0.18075725 -0.51907587 0.11395277
0.11408541 -0.38650239 -0.086130679 0.87024194 -0.1862427 -0.45606208 0.097234674
-0.1524556 -0.37229663 -0.088944495 -0.83123893 -0.24919 -0.49693677 0.078423165
-0.14464261 -0.37338844 -0.083989851 -0.82467848 -0.24219982 -0.51112103 0.089372449
-0.13579017 -0.37683696 -0.083892941 -0.80282944 -0.23479924 -0.54802758 0.10617746
-0.12783512 -0.37361705 -0.087901011 -0.76062423 -0.21464643 -0.61268073 0.12298887
-0.084703572 -0.37560695 -0.083500385 0.020923737 -0.094772637 -0.99527895 0.15915251
-0.075319543 -0.37581378 -0.084612802 0.11700862 -0.085679777 -0.98942804 0.13921422
-0.064886354 -0.37989753 -0.08004199 0.16688484 -0.083586931 -0.98242688 0.12452962
-0.057891082 -0.37770534 -0.082167529 0.19367297 -0.086594224 -0.97723711 0.1112287
-0.0059727049 -0.37769201 -0.082166649 -0.14576158 -0.033233494 -0.98876131 0.11162388
0.005225813 -0.37508583 -0.082892068 -0.22171752 -0.066324122 -0.97285271 0.091067336
0.019217674 -0.37190816 -0.08980006 -0.239502 -0.085627876 -0.96711248 0.08044336
0.020470805 -0.3794553 -0.08862222 -0.24326539 -0.06943509 -0.9674713 0.085999437
0.036088303 -0.37200695 -0.084621236 -0.15680104 -0.086284935 -0.98385382 0.13311592
0.044911031 -0.37564987 -0.085505247 -0.066291355 -0.098615929 -0.99291503 0.15424001
0.08876735 -0.37503698 -0.082906872 0.71948177 -0.17211844 -0.6728456 0.14599122
0.094161667 -0.37576604 -0.085190989 0.76675081 -0.17334262 -0.61809832 0.1344482
0.10659501 -0.37556282 -0.086628288 0.83532447 -0.17210712 -0.5221228 0.11271533
0.11666217 -0.37616712 -0.08956676 0.86984521 -0.17758334 -0.4602538 0.096020535
-0.15128233 -0.36495697 -0.083656222 -0.83676684 -0.2394886 -0.49240887 0.081983909
-0.14419626 -0.36557528 -0.085378252 -0.81379282 -0.23194258 -0.53286386 0.095125645
-0.13718517 -0.36421275 -0.087803029 -0.78809685 -0.21821049 -0.57557577 0.10830121
-0.08156047 -0.36472741 -0.083550788 0.0549866 -0.098676078 -0.9935993 0.14908889
-0.076334596 -0.36096561 -0.080556653 0.10540085 -0.09850429 -0.98953909 0.14019814
0.0080655701 -0.36475715 -0.085431598 -0.23239125 -0.08161135 -0.96919239 0.083447263
0.013976008 -0.3630147 -0.082805239 -0.24407873 -0.09929499 -0.96465856 0.085888699
0.026149383 -0.36544338 -0.085386045 -0.22066972 -0.098578297 -0.9703542 0.1011432
0.035350733 -0.36486679 -0.086845532 -0.17310748 -0.096072525 -0.98020601 0.12214426
0.043276533 -0.36494622 -0.088230871 -0.11743294 -0.10447489 -0.98756999 0.14251322
0.088283688 -0.36104897 -0.087406605 0.67667919 -0.15647972 -0.71945775 0.14618635
0.09611994 -0.36367252 -0.08526358 0.7673685 -0.16494986 -0.61962664 0.13173415
0.10485228 -0.36535209 -0.08529532 0.82215238 -0.1732776 -0.54225492 0.11730288
0.115833 -0.36045551 -0.087832913 0.85888213 -0.1733238 -0.48195484 0.096202888
0.12314264 -0.36204705 -0.082876116 0.8936255 -0.17964217 -0.41129321 0.082585029
-0.14504868 -0.35641408 -0.084790468 -0.81211454 -0.2251018 -0.5383299 0.099491052
-0.13537338 -0.35659483 -0.085127138 -0.78236562 -0.21062629 -0.58612341 0.11338656
-0.12710819 -0.35490203 -0.087219469 -0.72763968 -0.19557811 -0.65748733 0.13575123
-0.081714906 -0.35404781 -0.08224418 0.053001206 -0.11532171 -0.99191314 0.14368807
-0.074312061 -0.35443059 -0.083625555 0.12924306 -0.11161603 -0.98531109 0.12572129
-0.066408269 -0.35014313 -0.080731876 0.17280933 -0.12340417 -0.97719425 0.11096627
-0.041962124 -0.35445631 -0.080867238 0.22398645 -0.083696209 -0.97099173 0.099033155
-0.013501545 -0.35506108 -0.083678931 -0.088281617 -0.053592078 -0.99465281 0.11231551
-0.0070745563 -0.35097438 -0.08260747 -0.18073559 -0.076756813 -0.98053199 0.10301836
0.0076932739 -0.35496581 -0.08258903 -0.25269884 -0.09896484 -0.96247035 0.084761627
0.013349825 -0.35427949 -0.085358851 -0.2495822 -0.09140639 -0.96402991 0.081027798
0.02410526 -0.35552731 -0.084626459 -0.22264095 -0.10660338 -0.96905458 0.097683251
0.035408266 -0.35548368 -0.086550668 -0.17505401 -0.10994518 -0.97840077 0.11715546
0.041436344 -0.35977781 -0.084124327 -0.12089119 -0.11734954 -0.98570502 0.14197926
0.0899892 -0.35745716 -0.080250748 0.7286002 -0.15914483 -0.66619426 0.14182627
0.093293063 -0.35370573 -0.087468587 0.71328384 -0.16333129 -0.68157834 0.13699847
0.10441577 -0.35585314 -0.083845161 0.81658381 -0.16630919 -0.55274969 0.11591037
0.11566181 -0.35630289 -0.085854962 0.86310339 -0.16658111 -0.47676328 0.096929789
-0.15568462 -0.34546185 -0.082956567 -0.84585512 -0.22285351 -0.48462927 0.082778074
-0.14475664 -0.34539407 -0.085560359 -0.80199271 -0.20985086 -0.5592587 0.10112636
-0.13382429 -0.34471074 -0.087929606 -0.75016659 -0.19171482 -0.63284713 0.12213881
-0.12600315 -0.34084135 -0.086053729 -0.70661783 -0.18712434 -0.68240434 0.13736406
-0.075077944 -0.34499013 -0.086608283 0.13660704 -0.11833698 -0.98353189 0.11510013
-0.067685299 -0.3455193 -0.082677007 0.17790161 -0.12262734 -0.97637779 0.10703801
-0.011995915 -0.34426868 -0.081697486 -0.12245001 -0.076904394 -0.98949069 0.11201732
-0.0019598689 -0.34355834 -0.084414862 -0.23466273 -0.085940398 -0.96827042 0.089027137
0.00036254874 -0.34115586 -0.080108643 -0.25279662 -0.091335371 -0.9631986 0.1001278
0.012236292 -0.34731925 -0.086820945 -0.25256953 -0.10067452 -0.962327 0.078086145
0.026178516 -0.34580332 -0.085423172 -0.20964268 -0.12449241 -0.96982044 0.10062292
0.034983605 -0.34578514 -0.085416794 -0.1831851 -0.12456792 -0.97515434 0.11741956
0.095511645 -0.34614214 -0.089250118 0.71704644 -0.15012127 -0.68066734 0.13103212
0.10604382 -0.34779954 -0.083798632 0.81130821 -0.16820478 -0.55989838 0.11399794
0.11180193 -0.34383914 -0.089094199 0.825804 -0.15654126 -0.54179561 0.10629948
-0.1557616 -0.33623278 -0.083791934 -0.83730429 -0.19787177 -0.50967461 0.090016842
-0.14397548 -0.33662027 -0.084196404 -0.79713756 -0.19471313 -0.57154042 0.10821292
-0.1367348 -0.33395725 -0.08521916 -0.76443619 -0.18904491 -0.61635977 0.11842256
-0.074826807 -0.33618674 -0.088082142 0.13204448 -0.095872588 -0.98659658 0.11058494
-0.064830318 -0.33744854 -0.082914352 0.18987542 -0.11735968 -0.97476876 0.097814724
-0.057261765 -0.33651233 -0.084836654 0.23294282 -0.10830418 -0.9664408 0.08479882
-0.04739612 -0.33058813 -0.08055573 0.26742449 -0.10818309 -0.95748663 0.085919447
-0.0066685546 -0.33398098 -0.081923217 -0.20219725 -0.096709415 -0.97455812 0.10256586
0.0045168903 -0.33701509 -0.085869573 -0.26362494 -0.094573237 -0.95997798 0.07657598
0.015543401 -0.33311483 -0.087240338 -0.27013311 -0.115163 -0.95591086 0.075724959
0.029203584 -0.33582181 -0.08152584 -0.20006964 -0.13892792 -0.96988201 0.1077537
0.094478868 -0.33542123 -0.086218327 0.72051668 -0.1489294 -0.67725599 0.13160951
0.10779133 -0.33681822 -0.085962914 0.81123734 -0.15025476 -0.56508178 0.11189035
0.11398777 -0.33541429 -0.085079655 0.8438099 -0.1449939 -0.51668328 0.10068505
0.12310132 -0.33098552 -0.080601856 0.89011604 -0.14976737 -0.43042213 0.081250943
-0.15483147 -0.3254452 -0.084684685 -0.836106 -0.16179894 -0.52416396 0.091057159
-0.14424828 -0.32341981 -0.08553908 -0.79319745 -0.16626336 -0.58582795 0.10955593
-0.072046585 -0.32619721 -0.085267171 0.13002801 -0.10088871 -0.98636413 0.10559198
-0.066311903 -0.32392013 -0.085048914 0.17448422 -0.097218074 -0.97984892 0.090107046
-0.054074705 -0.32497534 -0.085269228 0.24586646 -0.085884623 -0.96549135 0.073323809
-0.046481594 -0.32360485 -0.080524005 0.26889706 -0.099168047 -0.95805013 0.083978862
-0.014744581 -0.32544667 -0.083933719 -0.092673369 -0.1107202 -0.98952138 0.10354827
-0.008619546 -0.32506382 -0.085224338 -0.17319359 -0.11982787 -0.97757113 0.094938524
0.0049158004 -0.32319036 -0.082431428 -0.27964211 -0.12056319 -0.95250458 0.085849516
0.01377622 -0.32409176 -0.085141033 -0.27911448 -0.12700793 -0.95182139 0.076298304
0.022930419 -0.3233279 -0.082639337 -0.23693544 -0.14853667 -0.96010333 0.092038676
0.034068789 -0.32264012 -0.086152226 -0.18855499 -0.13172437 -0.97318852 0.10223944
0.10575008 -0.32276157 -0.086321294 0.79186916 -0.12579896 -0.59759337 0.1134069
0.11647072 -0.32478803 -0.084007211 0.85514146 -0.1283491 -0.50225461 0.09444131
0.12489064 -0.32478437 -0.080088705 0.89652681 -0.13379823 -0.42230043 0.077780664
-0.15418959 -0.31359807 -0.08477138 -0.83648849 -0.13453411 -0.53121328 0.091335475
-0.14670327 -0.31593239 -0.0867934 -0.79977083 -0.13796249 -0.5842371 0.10610654
-0.076416515 -0.31452307 -0.085531577 0.10841176 -0.090539925 -0.98997444 0.10956185
-0.067638651 -0.31485748 -0.086112849 0.1696112 -0.078197032 -0.98240381 0.087416224
-0.059011597 -0.3152678 -0.086067833 0.21663447 -0.076927967 -0.97321713 0.074601889
-0.013530226 -0.31573048 -0.084623873 -0.1196373 -0.1412112 -0.98272389 0.10176377
-0.0060116015 -0.31438652 -0.084745832 -0.20055749 -0.13968489 -0.96967256 0.095211528
0.0062665753 -0.31438556 -0.087875046 -0.27027363 -0.12343995 -0.95483756 0.069927238
0.016263375 -0.31460997 -0.082778461 -0.27583084 -0.14158054 -0.95072192 0.083437189
0.026541013 -0.31592709 -0.081868604 -0.22857705 -0.14881347 -0.96208477 0.097516336
0.032394476 -0.31487849 -0.082768485 -0.18724513 -0.14887105 -0.97096688 0.10250013
0.092719033 -0.31027761 -0.082304843 0.68882906 -0.11170889 -0.71626508 0.13796586
0.10198943 -0.31468102 -0.080203667 0.79667681 -0.12544428 -0.59124422 0.11854462
0.11361824 -0.31445891 -0.085848071 0.83392358 -0.12555295 -0.53740853 0.099643156
0.12216204 -0.31546399 -0.083078675 0.87419987 -0.12809855 -0.46836454 0.086017147
0.13019125 -0.31290793 -0.083068818 0.90136951 -0.12929595 -0.41329834 0.071136191
-0.16119085 -0.30261725 -0.085080236 -0.8535676 -0.10188137 -0.51092327 0.08267241
-0.15603681 -0.30433166 -0.084911175 -0.8393147 -0.11595823 -0.53113508 0.089298144
-0.14617887 -0.30473581 -0.083015591 -0.80513126 -0.11682119 -0.58147788 0.10464678
-0.075978614 -0.3064903 -0.087091587 0.12745355 -0.077206403 -0.9888351 0.10342544
-0.0639956 -0.30084747 -0.084761888 0.18747379 -0.072028324 -0.97962517 0.076507017
-0.0047882809 -0.30342653 -0.083579205 -0.20637064 -0.13673991 -0.96887225 0.095035516
0.0097347489 -0.30608594 -0.085662551 -0.27509856 -0.12852263 -0.9527868 0.069207639
0.016557924 -0.30530483 -0.086557172 -0.26238489 -0.132732 -0.95579088 0.067079604
0.026378259 -0.30294195 -0.086140208 -0.22338137 -0.13343567 -0.96555454 0.076833978
0.035055272 -0.30380943 -0.086390734 -0.16251644 -0.1197338 -0.97941428 0.093246952
0.092012137 -0.30679113 -0.084635228 0.65836412 -0.11439052 -0.74395663 0.14155234
0.10557131 -0.30611634 -0.086311884 0.79034221 -0.1189006 -0.60101736 0.11457106
0.11441347 -0.30511743 -0.084079318 0.84247559 -0.11543076 -0.52622306 0.098735072
0.12314599 -0.30519491 -0.084491372 0.87256241 -0.12212545 -0.47299069 0.087168887
0.13122162 -0.30616376 -0.080222957 0.90940279 -0.12188548 -0.39765638 0.068404987
-0.1660264 -0.29375437 -0.085499585 -0.8696748 -0.055108964 -0.49053928 0.071218334
-0.15343873 -0.29385409 -0.086751379 -0.81584269 -0.079848692 -0.57273453 0.094979241
-0.14621773 -0.29393828 -0.085103549 -0.78698152 -0.090551347 -0.61029547 0.1073514
-0.073307492 -0.29574281 -0.085542753 0.13228616 -0.066131689 -0.989003 0.096667983
-0.065257505 -0.29639196 -0.087079704 0.1890853 -0.074814945 -0.97910649 0.076415926
-0.055287316 -0.29705307 -0.082845785 0.21859282 -0.088401921 -0.97180361 0.069473341
-0.043625157 -0.29500598 -0.081063434 0.20436646 -0.11105191 -0.97257477 0.074858516
-0.035250977 -0.29415333 -0.082597092 0.14435461 -0.12105202 -0.98209375 0.088180862
-0.0069689993 -0.29721817 -0.084309831 -0.17794581 -0.12286614 -0.9763397 0.090745203
0.0029167067 -0.29351312 -0.087189026 -0.24853896 -0.10588283 -0.96281737 0.066624008
0.034308828 -0.29461277 -0.087486871 -0.15722719 -0.10308634 -0.98216742 0.087920837
0.043209311 -0.29016659 -0.083958372 -0.078610316 -0.096543163 -0.99221963 0.10916692
0.050515905 -0.29766583 -0.089186311 -0.024049561 -0.11025238 -0.99361265 0.12071016
0.09087079 -0.29922822 -0.080154642 0.68955314 -0.11028542 -0.71578878 0.14744748
0.11467011 -0.29490709 -0.084665298 0.83731306 -0.11159208 -0.53521407 0.099033862
-0.16313297 -0.28688291 -0.083799481 -0.86435097 -0.046832912 -0.50070357 0.072185457
-0.15493901 -0.28542694 -0.083598085 -0.83279032 -0.056248732 -0.55072343 0.087270059
-0.14671795 -0.28475103 -0.083782829 -0.7930268 -0.068421945 -0.60533208 0.10490674
-0.082194433 -0.28383073 -0.089321144 0.073593386 -0.054076616 -0.99582106 0.11223694
-0.072303154 -0.28418824 -0.082207382 0.11516271 -0.067472741 -0.99105245 0.098701753
-0.06174076 -0.28272173 -0.083610736 0.169029 -0.076992609 -0.98259926 0.07600943
-0.052130148 -0.2823987 -0.085817292 0.18251404 -0.093070038 -0.97878838 0.067184612
-0.04713238 -0.28481087 -0.082755461 0.1881474 -0.098337159 -0.97720534 0.069394082
-0.026602047 -0.28506908 -0.082064092 0.045064691 -0.1147259 -0.99237448 0.096934624
-0.0044266814 -0.28701872 -0.082392909 -0.21714957 -0.11752725 -0.96903741 0.095429108
0.0033430406 -0.28813398 -0.083940342 -0.26541141 -0.1065772 -0.95822656 0.076768771
0.017561967 -0.28441808 -0.085426547 -0.25422537 -0.095520496 -0.96241641 0.058432195
0.025229167 -0.28533989 -0.084673285 -0.2128901 -0.096212104 -0.97232759 0.070932113
0.033524364 -0.2850619 -0.086273901 -0.15614985 -0.096340373 -0.98302382 0.083230525
0.046136934 -0.28460386 -0.086408645 -0.055367008 -0.077130668 -0.99548244 0.1137392
0.051709779 -0.28246057 -0.088736884 0.0089991558 -0.067635596 -0.99766958 0.12314849
0.10318649 -0.28329638 -0.084729791 0.75573629 -0.11252592 -0.64513612 0.12303188
0.11209424 -0.28327781 -0.087651685 0.80480587 -0.10921995 -0.58340263 0.10749852
0.12728651 -0.28443968 -0.081676729 0.88824743 -0.11623524 -0.44441637 0.07519678
0.13111171 -0.28040385 -0.08303754 0.89363247 -0.11281175 -0.43438983 0.071908757
-0.15503204 -0.27447838 -0.086241663 -0.82255042 -0.034294318 -0.56765723 0.082457036
-0.14458719 -0.27559978 -0.087029688 -0.75444102 -0.03654426 -0.65534967 0.11000387
-0.13293478 -0.27325854 -0.086687624 -0.68340135 -0.050139293 -0.72831899 0.12828678
-0.084155746 -0.27376935 -0.088068031 0.034344766 -0.045855105 -0.99835753 0.12108447
-0.074966535 -0.27425775 -0.086834207 0.10959569 -0.059426375 -0.99219823 0.098953813
-0.065249175 -0.27537251 -0.085932031 0.15030634 -0.075872175 -0.98572385 0.081107773
-0.054756213 -0.27267054 -0.08451321 0.17752311 -0.083226517 -0.98059112 0.07003402
-0.024284296 -0.27389297 -0.080584101 0.0093807755 -0.11398878 -0.99343777 0.099517301
-0.014715966 -0.27540761 -0.08344318 -0.09613584 -0.10857608 -0.98942876 0.091195285
-0.0039575896 -0.27631798 -0.087076724 -0.18843026 -0.097451501 -0.97723967 0.070875235
0.0057928399 -0.27384204 -0.086500242 -0.26170167 -0.091647401 -0.96078771 0.058106661
0.016488038 -0.27390856 -0.085907958 -0.26807415 -0.084874108 -0.95965236 0.053070303
0.021211267 -0.27449292 -0.083944559 -0.24610768 -0.093326114 -0.96473897 0.062834889
0.035728171 -0.27476472 -0.086073175 -0.12959638 -0.088946201 -0.98756945 0.088003814
0.046364412 -0.2743988 -0.086604729 -0.040154133 -0.07607051 -0.99629354 0.11390954
0.10671838 -0.27658415 -0.084615722 0.78397334 -0.10474348 -0.61189425 0.11504398
0.12627247 -0.27489191 -0.08474531 0.87178159 -0.10595443 -0.47829956 0.078838043
0.13381496 -0.27157724 -0.083832651 0.89631736 -0.11770054 -0.42750639 0.067785017
-0.16001667 -0.26076001 -0.083405033 -0.83694488 -0.025672568 -0.54668468 0.072952293
-0.15365948 -0.26539767 -0.08588995 -0.80453694 -0.029002406 -0.59319401 0.085358031
-0.14774424 -0.26434296 -0.088626429 -0.76632375 -0.031615093 -0.64167625 0.099866778
-0.077873729 -0.2647756 -0.084586106 0.066873185 -0.062365755 -0.99581051 0.10743246
-0.063708618 -0.26546711 -0.085992485 0.14276351 -0.069850482 -0.98728889 0.079907306
-0.055057 -0.26482737 -0.082237862 0.16674723 -0.083651111 -0.98244482 0.071853898
-0.024635958 -0.261356 -0.084316425 0.00091889844 -0.095325209 -0.99544573 0.074436098
-0.019643525 -0.26754397 -0.089027181 -0.042614512 -0.092680216 -0.99478358 0.073406845
-0.0046556848 -0.26513582 -0.086697325 -0.18319108 -0.095924906 -0.97838616 0.064464584
0.0040868083 -0.26699913 -0.086000681 -0.23366217 -0.095202386 -0.96764594 0.062833674
0.014689302 -0.26836845 -0.083808407 -0.27413559 -0.094084032 -0.9570778 0.055309307
0.023450237 -0.26602983 -0.085639179 -0.23019563 -0.09083984 -0.96889526 0.057844505
0.033426236 -0.26315537 -0.088667877 -0.15045509 -0.083069645 -0.98512071 0.077982001
0.045646414 -0.26098734 -0.089905508 -0.060077351 -0.077957653 -0.9951449 0.10342301
0.099824183 -0.26694801 -0.088802844 0.68799818 -0.087730661 -0.72039014 0.12807801
0.10645577 -0.26716504 -0.08375477 0.78048968 -0.10328049 -0.61657852 0.11654324
0.11610599 -0.26567218 -0.085763559 0.81919533 -0.11037526 -0.56279337 0.10017782
0.12213418 -0.26356131 -0.083525434 0.85432166 -0.10937065 -0.50810683 0.08791367
-0.15792187 -0.25443375 -0.083749495 -0.82906353 -0.03007067 -0.55834538 0.073189646
-0.14532113 -0.2553837 -0.085222736 -0.75857329 -0.034476083 -0.650675 0.10404346
-0.13898019 -0.25086832 -0.083155952 -0.71949065 -0.040024921 -0.69334787 0.11618844
-0.062855393 -0.2569907 -0.083854817 0.13100311 -0.080273435 -0.9881267 0.083490692
-0.053803883 -0.25306904 -0.083469555 0.1582907 -0.09094464 -0.98319536 0.071126282
-0.030841593 -0.25623292 -0.080049664 0.079939485 -0.099502563 -0.99182105 0.082109287
-0.02802827 -0.25561246 -0.086574912 0.051086817 -0.098750681 -0.99379998 0.071184672
-0.015161805 -0.25513202 -0.083509661 -0.093726441 -0.10179227 -0.99038059 0.073084518
-0.0061365166 -0.25569165 -0.083299547 -0.17312513 -0.099497318 -0.97986114 0.071808375
0.014113187 -0.25340557 -0.081386939 -0.27414146 -0.10222439 -0.95624089 0.058528852
0.024878506 -0.25525522 -0.084934264 -0.21440668 -0.081345722 -0.97335118 0.059253402
0.03705246 -0.25824577 -0.085779101 -0.10895459 -0.084249109 -0.99047005 0.088821851
0.10757254 -0.25849432 -0.088221379 0.74945921 -0.10752586 -0.65326035 0.11603032
0.11500387 -0.25545087 -0.084841475 0.81219685 -0.11718354 -0.57149303 0.10238829
0.123119 -0.25375116 -0.085956275 0.84541684 -0.11654718 -0.52123612 0.086090386
0.13081926 -0.25750053 -0.080161281 0.89085066 -0.12335477 -0.43722838 0.072939888
-0.15427989 -0.24587741 -0.08372654 -0.80397487 -0.037510589 -0.59347904 0.079465047
-0.14466172 -0.24562576 -0.087641798 -0.73551649 -0.036221258 -0.67653781 0.10278362
-0.13607478 -0.24597615 -0.089527726 -0.67382896 -0.036633994 -0.7379787 0.12020154
-0.078290448 -0.24052238 -0.087542772 0.062546223 -0.096848398 -0.99333203 0.10395209
-0.053299926 -0.24356444 -0.087240562 0.16798325 -0.085688211 -0.9820587 0.065968469
-0.049294978 -0.24682748 -0.087709188 0.17321789 -0.088174276 -0.98092854 0.062010147
-0.024236545 -0.24639811 -0.08193592 -0.0049956944 -0.10643517 -0.99430716 0.071258068
-0.015486101 -0.24596056 -0.08512821 -0.088357612 -0.10112705 -0.99094212 0.064188845
-0.0076573687 -0.24078608 -0.083781488 -0.14638786 -0.098135807 -0.98434746 0.057947583
0.007383801 -0.24701865 -0.08319433 -0.26296014 -0.091706172 -0.96043843 0.049815666
0.015847234 -0.24412489 -0.083792821 -0.25888893 -0.089232817 -0.96177655 0.043036006
0.023675075 -0.24601924 -0.084154442 -0.21094787 -0.081955805 -0.97405559 0.05401079
0.031483844 -0.24083728 -0.08659327 -0.15745211 -0.073460557 -0.9847905 0.065352648
0.042263411 -0.24599002 -0.089973599 -0.089544952 -0.073148757 -0.99329305 0.088120036
0.10969866 -0.24758191 -0.081863508 0.79711616 -0.10909776 -0.59388846 0.11418155
0.11415099 -0.24451523 -0.084052995 0.81280977 -0.11122618 -0.57181203 0.10375756
0.12473359 -0.24440016 -0.084608339 0.85067439 -0.12349058 -0.51098245 0.084363602
0.13146341 -0.24503294 -0.081687234 0.8886143 -0.12308104 -0.44183207 0.072461091
-0.15230101 -0.23669961 -0.082692817 -0.79080963 -0.040000472 -0.61075366 0.083954573
-0.14557098 -0.23523729 -0.085268937 -0.74002945 -0.053346757 -0.67045546 0.097160876
-0.078285247 -0.23510408 -0.085570574 0.049107496 -0.096399732 -0.99413055 0.10612016
-0.064547785 -0.23531014 -0.088260829 0.12204567 -0.099460743 -0.98752838 0.081344716
-0.054360237 -0.23526646 -0.083306819 0.14974113 -0.097709484 -0.98388535 0.067650922
-0.046837401 -0.23326245 -0.082367294 0.15848161 -0.099163868 -0.9823696 0.059618443
-0.024763767 -0.2344441 -0.080351546 0.011648767 -0.1112122 -0.9937284 0.074915051
-0.014813964 -0.23599358 -0.086130984 -0.084322304 -0.097151212 -0.99169117 0.057930112
-0.0026220318 -0.2325111 -0.082003795 -0.18299569 -0.10234585 -0.97777194 0.05708902
0.0066626244 -0.23364353 -0.081518896 -0.25075498 -0.094252482 -0.96345127 0.050992373
0.014341544 -0.23467103 -0.086098023 -0.26086566 -0.077940308 -0.96222365 0.038086746
0.02483171 -0.23544131 -0.085392959 -0.19809495 -0.070328005 -0.9776566 0.054663964
0.031095222 -0.23360753 -0.08821857 -0.16286981 -0.070186168 -0.98414803 0.063273482
0.10806676 -0.23446712 -0.085779354 0.75141382 -0.10611393 -0.65124273 0.11494122
0.11557245 -0.23460026 -0.084373355 0.8055253 -0.11883198 -0.58052385 0.10174213
0.12421238 -0.23380403 -0.083656594 0.84984285 -0.12710659 -0.51147926 0.08551392
-0.15314984 -0.22466679 -0.082910717 -0.78724527 -0.051247723 -0.61450672 0.0790786
-0.14444529 -0.22696854 -0.085426204 -0.72678643 -0.053135429 -0.6848051 0.099968091
-0.13749117 -0.2258995 -0.083327271 -0.67769057 -0.04691799 -0.73384887 0.11347282
-0.072655112 -0.22832906 -0.086297393 0.071437411 -0.10122717 -0.99229515 0.093336038
-0.065392539 -0.223758 -0.085115694 0.10753372 -0.1071355 -0.98841208 0.081185944
-0.053841889 -0.22586244 -0.08447776 0.15341264 -0.10268164 -0.98281282 0.064061224
-0.042160146 -0.22117066 -0.084615089 0.14662679 -0.10096033 -0.98402619 0.056484669
-0.025572779 -0.22881389 -0.085624062 0.022245403 -0.10866866 -0.99382913 0.058487594
-0.018878993 -0.22370854 -0.087017037 -0.040608674 -0.10611185 -0.99352467 0.055469025
-0.0049822414 -0.22362971 -0.085121565 -0.1522489 -0.10192633 -0.9830724 0.047517568
0.0054557822 -0.22503574 -0.085549511 -0.22774561 -0.093830109 -0.96918929 0.039482966
0.013938292 -0.22605543 -0.086674243 -0.24448764 -0.08000268 -0.96634638 0.037950777
0.024966542 -0.22575112 -0.086946279 -0.20390365 -0.079339586 -0.97577077 0.050560836
0.035950251 -0.22132972 -0.08222793 -0.10745405 -0.087812454 -0.9903245 0.077051207
0.10758892 -0.22566029 -0.085287318 0.73988104 -0.10548307 -0.66441655 0.11518604
0.11592493 -0.22339594 -0.08366888 0.80038375 -0.11483169 -0.58838725 0.10345705
0.12497824 -0.22545402 -0.084773749 0.84537077 -0.11845504 -0.52088064 0.084299728
0.13277215 -0.2210824 -0.086234562 0.86571729 -0.12067318 -0.48576906 0.072257973
-0.1603512 -0.21482015 -0.080263168 -0.82055271 -0.071245603 -0.56711316 0.066911764
-0.15130191 -0.21673447 -0.081477925 -0.77667505 -0.058474835 -0.62718141 0.081822865
-0.1436438 -0.21732554 -0.080557168 -0.73087788 -0.053759638 -0.68038774 0.098786198
-0.13319337 -0.21398607 -0.082628235 -0.62294787 -0.043498419 -0.78105295 0.12382164
-0.074904613 -0.21388383 -0.086850286 0.062701054 -0.10227807 -0.99277782 0.094623111
-0.062504791 -0.21345739 -0.087796599 0.12202781 -0.093534857 -0.98810953 0.070279561
-0.053958725 -0.21457003 -0.085252337 0.14781867 -0.090089805 -0.98490274 0.061887611
-0.042721041 -0.2157034 -0.084825918 0.14835399 -0.096472606 -0.98421752 0.05600423
-0.034215659 -0.21424669 -0.086832985 0.10916296 -0.10548057 -0.98841155 0.056655135
-0.021028768 -0.2161534 -0.080179647 -0.02725796 -0.10844763 -0.9937284 0.058069091
-0.015629474 -0.21425071 -0.085222363 -0.070958994 -0.10524928 -0.99191105 0.050643269
-0.0037104052 -0.21441419 -0.085012443 -0.16106278 -0.10481103 -0.981363 0.043523744
0.0061642025 -0.21451314 -0.085387483 -0.22697014 -0.094861776 -0.96927071 0.035422023
0.01884973 -0.21383488 -0.089535236 -0.22227557 -0.082424231 -0.9714936 0.039138012
0.046853285 -0.21609871 -0.087646559 -0.024423892 -0.085874386 -0.99600655 0.094184704
0.10915825 -0.21696943 -0.08459194 0.75107384 -0.10683823 -0.65151644 0.11275183
0.11612583 -0.21568809 -0.081548616 0.8095876 -0.12017795 -0.57456517 0.10426509
0.12367471 -0.21621193 -0.085220434 0.82289094 -0.11229805 -0.55699158 0.088757105
0.13436027 -0.21453372 -0.083524004 0.8795386 -0.12357447 -0.45950118 0.067932144
-0.15325882 -0.20454876 -0.083448194 -0.77111554 -0.082886226 -0.63127702 0.077530265
-0.14417717 -0.20570068 -0.082350962 -0.71616852 -0.073233321 -0.69407457 0.096081622
-0.078332178 -0.20543309 -0.089230299 0.052629046 -0.094706632 -0.99411315 0.093450323
-0.063854903 -0.20553687 -0.087891608 0.12388718 -0.10156876 -0.98708451 0.070028089
-0.054244768 -0.20636268 -0.083153598 0.14349343 -0.096440896 -0.98494107 0.060719844
-0.047946967 -0.20460698 -0.081978247 0.14489143 -0.09913443 -0.98446882 0.055111915
-0.032203577 -0.20501234 -0.08452113 0.087236732 -0.10505333 -0.99063295 0.054197166
-0.025600582 -0.20521533 -0.086284846 0.021318093 -0.10573059 -0.99416625 0.054129738
-0.014239113 -0.20527828 -0.082446806 -0.080789156 -0.1042873 -0.99126047 0.04810933
-0.0039897957 -0.20666182 -0.084493443 -0.15202528 -0.107365 -0.98252791 0.042247407
0.0037570011 -0.20586614 -0.086512059 -0.20146558 -0.10229449 -0.97413927 0.036377583
0.012380269 -0.20738848 -0.08574751 -0.22752294 -0.094960727 -0.96913147 0.033495411
0.03311488 -0.20259124 -0.086507082 -0.14414257 -0.090927094 -0.98537058 0.058153749
0.11180293 -0.20520709 -0.086450495 0.72984725 -0.11012997 -0.67468095 0.10629636
0.12414348 -0.20440602 -0.083811939 0.82570153 -0.11920474 -0.55136853 0.089036234
0.13562052 -0.20534652 -0.085844792 0.86599272 -0.1162618 -0.48635349 0.066626146
-0.15536065 -0.19503886 -0.082041971 -0.77703834 -0.10600644 -0.62046283 0.071047395
-0.14411233 -0.19491717 -0.083221197 -0.69625139 -0.09054552 -0.71206427 0.094312832
-0.13715596 -0.19361435 -0.0827998 -0.63415223 -0.099004738 -0.7668435 0.10965408
-0.073148355 -0.19718578 -0.085134313 0.062436819 -0.096454829 -0.99337709 0.084874153
-0.064050518 -0.19467512 -0.083332144 0.11259424 -0.092872433 -0.98929131 0.067897134
-0.055694498 -0.19302213 -0.084868297 0.13770862 -0.10096335 -0.98531348 0.05757536
-0.045320399 -0.19397281 -0.085013114 0.14584582 -0.097884089 -0.98445302 0.051889721
-0.012719679 -0.19505143 -0.086046875 -0.089597583 -0.10463487 -0.99046648 0.045670871
-0.0060356935 -0.19517936 -0.084399045 -0.13414636 -0.1075775 -0.98510498 0.041170936
0.0042177779 -0.19449985 -0.085442744 -0.19994272 -0.10472165 -0.97419518 0.033319455
0.012586415 -0.19504291 -0.089080572 -0.22379225 -0.09838964 -0.96965796 0.030081199
0.029864728 -0.19007647 -0.08620882 -0.15913799 -0.097789526 -0.98240125 0.047330242
0.035785481 -0.19632274 -0.086353898 -0.12844206 -0.10364703 -0.98628598 0.059475031
0.041304499 -0.1954391 -0.088160634 -0.089528695 -0.098533928 -0.99109823 0.06721279
0.11423521 -0.19361025 -0.084958203 0.76185751 -0.11215068 -0.63796192 0.10041155
0.12371843 -0.19558361 -0.084384359 0.82003856 -0.11028065 -0.56158257 0.087997474
0.13436334 -0.19615163 -0.085973583 0.85621423 -0.12212211 -0.50197929 0.067230798
-0.15154751 -0.18676361 -0.088406421 -0.71561015 -0.10461085 -0.69062191 0.081295177
-0.14550206 -0.18447943 -0.087328538 -0.68380028 -0.10501914 -0.72207212 0.088413134
-0.13569309 -0.18468912 -0.088011801 -0.59660256 -0.097317025 -0.79661459 0.10681938
-0.084651761 -0.18587053 -0.089016587 0.011123093 -0.080226779 -0.99671459 0.094117269
-0.07563287 -0.18495601 -0.08546301 0.04672033 -0.084677733 -0.99531251 0.082743876
-0.061789598 -0.18408656 -0.084132701 0.10395252 -0.093579903 -0.99017 0.062125091
-0.051795915 -0.18351978 -0.088057294 0.13336794 -0.09589301 -0.98641652 0.051371537
-0.045038063 -0.18580402 -0.085957192 0.15077865 -0.10142147 -0.98335117 0.049367506
-0.03634721 -0.18544951 -0.086999506 0.10491259 -0.10056221 -0.989384 0.049564466
-0.02168116 -0.18476009 -0.084273815 -0.020058099 -0.11251558 -0.99344754 0.048064183
-0.01351002 -0.18500844 -0.087801643 -0.078345448 -0.10577007 -0.99129945 0.0445734
-0.005021146 -0.18459527 -0.085730039 -0.13648774 -0.10669412 -0.98487937 0.039185762
0.0030881036 -0.18298404 -0.08418373 -0.18908267 -0.1023665 -0.9766109 0.031973276
0.023856521 -0.18340671 -0.086973786 -0.2033916 -0.1020594 -0.9737637 0.033720851
0.10691996 -0.18709092 -0.082503237 0.73168534 -0.12214054 -0.67061031 0.11222956
0.1193068 -0.18511792 -0.080933578 0.81125367 -0.12014503 -0.57221729 0.096612602
0.1263544 -0.18603182 -0.085622519 0.81657296 -0.11392427 -0.56588846 0.08430884
0.13124169 -0.18654345 -0.088433482 0.81934476 -0.11519559 -0.56160849 0.07838501
-0.15329088 -0.17030337 -0.08618211 -0.71404815 -0.11394954 -0.69076103 0.075057402
-0.14411084 -0.17776367 -0.083887838 -0.67248404 -0.11494198 -0.73113167 0.091968358
-0.13592654 -0.17291608 -0.087057188 -0.57887423 -0.1010382 -0.80913281 0.10486954
-0.082659408 -0.17774272 -0.088299565 0.012886508 -0.077566601 -0.99690384 0.086320437
-0.074973643 -0.17843081 -0.085166812 0.050615691 -0.088503838 -0.99478894 0.076683141
-0.063368879 -0.17653026 -0.083197176 0.097292937 -0.10152851 -0.99006367 0.061569314
-0.054228697 -0.17602392 -0.085505128 0.12027341 -0.096905492 -0.98799986 0.052593045
-0.044447076 -0.17514178 -0.085164219 0.14074261 -0.096251644 -0.98535639 0.046450548
-0.032786347 -0.1747891 -0.085387334 0.077745266 -0.1035951 -0.99157637 0.04762752
-0.015866328 -0.17245471 -0.087809958 -0.060619097 -0.10294149 -0.99283856 0.043119363
0.0064252266 -0.17779458 -0.08763092 -0.19702953 -0.10081616 -0.97520018 0.02964244
0.029183447 -0.17630619 -0.088646054 -0.17697771 -0.10658992 -0.97842592 0.037177097
0.035058182 -0.17635217 -0.086296096 -0.1410778 -0.11599575 -0.98317957 0.048185006
0.040489912 -0.17586046 -0.089547992 -0.10384324 -0.10894687 -0.98860866 0.054360822
0.11814692 -0.17507711 -0.085261315 0.7706458 -0.12909098 -0.62405169 0.091549672
0.1267073 -0.1749647 -0.085383035 0.80832303 -0.13034637 -0.57412869 0.082666345
-0.16346782 -0.16262579 -0.084588319 -0.76075482 -0.13064194 -0.63575542 0.057628285
-0.15476073 -0.16326909 -0.086341485 -0.72227836 -0.12095366 -0.68094355 0.066610172
-0.14573506 -0.16495654 -0.086444624 -0.66153437 -0.10984271 -0.74182671 0.084087908
-0.071324363 -0.16177638 -0.08546599 0.062868074 -0.093016498 -0.99367774 0.066178456
-0.065704778 -0.16509518 -0.08455763 0.096952543 -0.092956945 -0.9909386 0.059726462
-0.05657481 -0.16493617 -0.084811173 0.1183387 -0.095090896 -0.98840964 0.050506506
-0.040448487 -0.16938804 -0.086472012 0.12152976 -0.094025977 -0.98812431 0.046085082
-0.024681833 -0.16521458 -0.0811636 0.0057970053 -0.10533613 -0.99441975 0.045368738
-0.016008371 -0.16729023 -0.083839387 -0.063940704 -0.10447797 -0.99246961 0.042217277
0.0070196525 -0.16495463 -0.088103712 -0.20139678 -0.10171574 -0.97421414 0.027725136
0.036516137 -0.16761406 -0.089048147 -0.13322496 -0.10994341 -0.98496884 0.045941342
0.11779204 -0.16251457 -0.084838942 0.75570643 -0.12433341 -0.64299989 0.091148257
0.12820679 -0.16388486 -0.089028485 0.79099572 -0.12675273 -0.59854782 0.076176926
0.13673839 -0.16328982 -0.086065002 0.84058422 -0.12758425 -0.52644116 0.063261949
0.14129272 -0.16236037 -0.084924474 0.8649891 -0.13262983 -0.48394534 0.055084292
-0.17003095 -0.15113924 -0.082724065 -0.78790629 -0.14071925 -0.59950125 0.046971742
-0.16232689 -0.15572076 -0.087762125 -0.73502403 -0.12801686 -0.66584623 0.058035899
-0.15223818 -0.15250339 -0.08385241 -0.70455801 -0.12224869 -0.69903749 0.069056936
-0.14233324 -0.15823323 -0.087388992 -0.60942304 -0.099154644 -0.78662056 0.090579294
-0.070370845 -0.15582915 -0.084286004 0.063555188 -0.086705759 -0.99420464 0.061754335
-0.063895963 -0.15288216 -0.084465504 0.10338791 -0.079005674 -0.99149835 0.054068852
-0.054662183 -0.15509322 -0.08653672 0.12937018 -0.07208243 -0.9889729 0.04617396
-0.045854256 -0.15487607 -0.081010804 0.13083062 -0.072741121 -0.98873258 0.045093477
-0.032544073 -0.1564949 -0.083534539 0.060842533 -0.089416526 -0.99413419 0.045931403
-0.024096906 -0.15418398 -0.086575434 -0.0047368812 -0.09235087 -0.99571532 0.044490848
-0.015995996 -0.15535042 -0.085860364 -0.056940846 -0.0992468 -0.9934324 0.041609652
-0.0045877052 -0.15183918 -0.088723816 -0.13562144 -0.094621897 -0.98623204 0.034794815
0.0074493275 -0.15833847 -0.088783085 -0.19747747 -0.1016777 -0.97502011 0.027683346
0.039729662 -0.1539405 -0.089551151 -0.1176236 -0.11492275 -0.98638606 0.043963939
0.11635336 -0.15458828 -0.086541243 0.72203571 -0.11778714 -0.68175548 0.091555156
0.12335558 -0.15488279 -0.084932528 0.77794379 -0.12352294 -0.61607254 0.083939932
0.13740845 -0.15228672 -0.085018575 0.84210968 -0.13042414 -0.52329797 0.062182456
0.14179708 -0.15373415 -0.083405502 0.86627549 -0.1328425 -0.48158047 0.056815077
-0.16517323 -0.1466893 -0.085315704 -0.75483495 -0.14471391 -0.63975161 0.05071624
-0.1537516 -0.14523169 -0.085043617 -0.69732797 -0.13162433 -0.70456284 0.064758122
-0.14956859 -0.14633058 -0.084976442 -0.66097963 -0.11478434 -0.74157292 0.076781221
-0.07751669 -0.14117973 -0.086711332 0.036572948 -0.077930175 -0.9962877 0.063539229
-0.066710211 -0.14370206 -0.087002717 0.10003711 -0.072266169 -0.99235582 0.052440196
-0.052126825 -0.14486228 -0.083470948 0.13556518 -0.068844944 -0.98837364 0.042920556
-0.045464277 -0.14565925 -0.083749197 0.12215952 -0.067078255 -0.99024117 0.043935511
-0.03553573 -0.14475036 -0.084975839 0.07397528 -0.078436971 -0.99417067 0.046011448
-0.027632857 -0.14655691 -0.085025571 0.007577409 -0.086678825 -0.99620748 0.04452236
-0.013309114 -0.14598928 -0.087563984 -0.080918603 -0.090322025 -0.99261975 0.039180893
-0.0050552669 -0.14110661 -0.087925091 -0.13787468 -0.094521724 -0.98592913 0.03408533
0.11709713 -0.14631966 -0.085235879 0.73159194 -0.10894108 -0.67298222 0.089521892
0.12638398 -0.14715233 -0.08474949 0.79461396 -0.11467644 -0.59618616 0.078598849
0.13397905 -0.14532863 -0.085538015 0.81758475 -0.11679944 -0.56383777 0.066748045
-0.16326779 -0.13785414 -0.087780297 -0.72731102 -0.13456731 -0.67298609 0.051613711
-0.15487608 -0.13575801 -0.085283108 -0.69178307 -0.12716976 -0.71081918 0.059514195
-0.065643705 -0.13377698 -0.087163426 0.10027163 -0.069735304 -0.9925133 0.049394723
-0.053211428 -0.13422398 -0.084430121 0.13969691 -0.073909037 -0.98743212 0.04178324
-0.045989901 -0.13451761 -0.086196899 0.11637104 -0.077906743 -0.99014562 0.042791124
-0.033901289 -0.13481982 -0.088183254 0.057063565 -0.090086944 -0.99429786 0.0443618
-0.025472092 -0.13413218 -0.086134523 -0.0023798579 -0.088827454 -0.99604416 0.043658074
-0.01449188 -0.13602677 -0.084799439 -0.0810913 -0.09122175 -0.99252337 0.038481582
-0.0026167261 -0.13756643 -0.086315595 -0.15657207 -0.092879891 -0.98328966 0.032618023
0.11783864 -0.13398695 -0.089880727 0.69178182 -0.08865501 -0.71664363 0.084045
0.12594175 -0.13416904 -0.086274497 0.76967722 -0.094464965 -0.63140589 0.075912446
0.1336689 -0.1350957 -0.085574515 0.8110798 -0.10199232 -0.57597488 0.066862747
-0.17212078 -0.12408508 -0.083373979 -0.77655888 -0.13776331 -0.61479884 0.040285688
-0.1670028 -0.12552233 -0.083459854 -0.75601941 -0.13928801 -0.63955724 0.045005336
-0.15601051 -0.12572809 -0.083503701 -0.69389427 -0.12922461 -0.70838666 0.058061235
-0.064858533 -0.12375648 -0.087480016 0.10719594 -0.055797767 -0.99267101 0.045910653
-0.054067485 -0.12491187 -0.086303473 0.13425751 -0.064735226 -0.98882973 0.040693354
-0.044889674 -0.12539087 -0.08680322 0.10484824 -0.071637958 -0.99190468 0.042082526
-0.033681322 -0.12662324 -0.085740052 0.047474224 -0.078847937 -0.99575555 0.043501079
-0.026817398 -0.12757793 -0.08366549 0.0035098593 -0.085091531 -0.99636692 0.042249132
-0.015483639 -0.12545072 -0.084945619 -0.072896421 -0.085158944 -0.99369723 0.03837537
-0.0072443532 -0.12273683 -0.086530343 -0.12993848 -0.079747513 -0.9883098 0.035176728
0.02387503 -0.12714505 -0.08894664 -0.20782059 -0.079784304 -0.97490776 0.02384337
0.12552162 -0.12646659 -0.085795842 0.75993603 -0.09225741 -0.64341736 0.077722885
0.13204259 -0.12252221 -0.081954703 0.81499374 -0.10609149 -0.56967527 0.072085604
0.15046905 -0.12255453 -0.082902625 0.87730575 -0.11592338 -0.46572137 0.048714966
-0.18083626 -0.11912905 -0.08092279 -0.81126291 -0.13725278 -0.56834334 0.035124209
-0.1735245 -0.1164777 -0.083981238 -0.77290994 -0.12819842 -0.6214301 0.039478987
-0.16249408 -0.11440621 -0.083969556 -0.71926469 -0.12108969 -0.68410212 0.048393674
-0.15817341 -0.11445785 -0.081674658 -0.70278603 -0.12592508 -0.70016754 0.056546107
-0.06415695 -0.11605069 -0.084976763 0.10326263 -0.058186285 -0.9929508 0.044399656
-0.057447035 -0.11467952 -0.086213447 0.12023558 -0.055112366 -0.99121445 0.040563844
-0.044787895 -0.11437956 -0.085379064 0.09834338 -0.06657999 -0.99292278 0.042202864
-0.036976669 -0.11453688 -0.085786566 0.057884943 -0.072133251 -0.99571389 0.042457964
-0.022328168 -0.11445787 -0.082158111 -0.03311098 -0.073921412 -0.99671423 0.040508714
-0.014906004 -0.11659938 -0.086589634 -0.086450785 -0.08151301 -0.99291587 0.037351105
0.00017376291 -0.11922967 -0.089242779 -0.16798833 -0.080876954 -0.98246562 0.031527083
0.1176208 -0.11445361 -0.087417126 0.6956957 -0.078802235 -0.71400124 0.08242932
0.12605321 -0.11508251 -0.08620625 0.74175781 -0.081600301 -0.66568518 0.07454513
0.13512492 -0.11481903 -0.085703477 0.79424435 -0.093278699 -0.60039574 0.065287568
0.14297125 -0.11428057 -0.084591419 0.84137404 -0.10358889 -0.530433 0.054821696
-0.18136498 -0.103801 -0.083652951 -0.79676503 -0.11115638 -0.59397793 0.033882737
-0.17428647 -0.10498258 -0.086321101 -0.7597999 -0.10803022 -0.64111894 0.037357382
-0.16610642 -0.10270783 -0.08296714 -0.731951 -0.1012927 -0.67378604 0.045306593
-0.15659094 -0.1071559 -0.085215971 -0.66968399 -0.10137205 -0.73569494 0.056099825
-0.14772157 -0.10485165 -0.088603377 -0.57947272 -0.089713357 -0.81003881 0.066348709
-0.062361963 -0.10998545 -0.086903915 0.10708813 -0.049478859 -0.99301761 0.04107831
-0.056426842 -0.10563026 -0.085070997 0.11578925 -0.049924504 -0.9920184 0.039044637
-0.045859419 -0.10426974 -0.084249198 0.085904762 -0.056325354 -0.99470991 0.041631036
-0.036070824 -0.10404009 -0.085198984 0.044675522 -0.060481526 -0.99716902 0.041746639
-0.024354659 -0.10404226 -0.084620148 -0.020783329 -0.067514189 -0.99750179 0.040088996
-0.015497039 -0.10568497 -0.086130716 -0.082791105 -0.068583295 -0.99420416 0.037148021
-0.0099159991 -0.10997788 -0.089975476 -0.11051175 -0.07043571 -0.9913758 0.035777133
0.1268959 -0.10536487 -0.085100368 0.74506462 -0.081201315 -0.66203105 0.072260641
0.13418955 -0.10473502 -0.085033119 0.78082949 -0.084916972 -0.61894614 0.064532585
0.14917326 -0.10043862 -0.083536983 0.85222566 -0.093511149 -0.51474965 0.048540961
0.15338634 -0.10271905 -0.081173353 0.88047129 -0.10038281 -0.46335036 0.044655554
-0.18009371 -0.096401781 -0.080222994 -0.79889572 -0.099430218 -0.59319407 0.035475519
-0.17405725 -0.09522555 -0.085990727 -0.75353748 -0.089425862 -0.65129435 0.037402146
-0.16332319 -0.097304173 -0.086086333 -0.7053327 -0.087908834 -0.70340449 0.046171334
-0.15508135 -0.093214184 -0.086668238 -0.64028406 -0.077443875 -0.76422423 0.056852352
-0.14817438 -0.091103442 -0.089724459 -0.55874288 -0.06459979 -0.82682115 0.065828592
-0.052127525 -0.094813854 -0.083461344 0.1013543 -0.04449898 -0.99385464 0.039091818
-0.044355422 -0.093565896 -0.084623709 0.076860897 -0.047749773 -0.99589777 0.0400072
-0.036073755 -0.094261482 -0.085346922 0.033974975 -0.05292403 -0.99802041 0.040674675
-0.026477765 -0.09389253 -0.083920658 -0.020055385 -0.060583133 -0.99796164 0.038780168
-0.016492181 -0.097875237 -0.088903464 -0.074044414 -0.063622735 -0.9952234 0.037672173
0.12888119 -0.095793501 -0.084414504 0.75331181 -0.069642462 -0.65396577 0.069379084
0.13562445 -0.096733421 -0.082518756 0.80112261 -0.081380814 -0.59294158 0.063140601
0.14373273 -0.094042905 -0.085849479 0.81661576 -0.082772121 -0.57121587 0.052369777
-0.1710556 -0.087465227 -0.08484596 -0.73626822 -0.071379207 -0.67291462 0.040739506
-0.16531767 -0.084919214 -0.085181117 -0.7076571 -0.066611528 -0.70340902 0.044559676
-0.15552795 -0.085505024 -0.084350228 -0.64949298 -0.067366734 -0.75737739 0.055998713
-0.053479567 -0.084189899 -0.085088529 0.093232848 -0.035664517 -0.99500537 0.037589543
-0.045166418 -0.085421503 -0.088094808 0.071490012 -0.041678902 -0.99657023 0.038624525
-0.033920418 -0.083770685 -0.086926877 0.019910673 -0.043703824 -0.99884605 0.038615894
-0.02607316 -0.086118668 -0.086721599 -0.024432315 -0.048489321 -0.99852484 0.037426054
0.12862708 -0.083165281 -0.086661845 0.72162521 -0.04299188 -0.69094765 0.066873521
0.13399173 -0.085445188 -0.085004315 0.76553768 -0.052644365 -0.64123374 0.06313318
0.14400296 -0.085120343 -0.085359648 0.80713379 -0.063524276 -0.58694106 0.053950511
-0.17080213 -0.071550876 -0.084186226 -0.72142833 -0.037565529 -0.69146943 0.042062014
-0.16780424 -0.077968463 -0.083993219 -0.72011924 -0.047383972 -0.6922304 0.042858593
-0.15903158 -0.071984835 -0.082965508 -0.66759658 -0.030416213 -0.74390161 0.051111106
-0.14165285 -0.072014973 -0.088555962 -0.47391301 -0.018500391 -0.88037723 0.067635596
-0.076129004 -0.074537255 -0.0896753 0.053366128 -0.001581189 -0.99857372 0.038890488
-0.061384227 -0.076115578 -0.085966572 0.084862426 -0.01640093 -0.99625766 0.036497355
-0.055213083 -0.073948324 -0.085991919 0.085469484 -0.020406606 -0.99613178 0.035923421
