# .PCD v0.7 - Point Cloud Data file format
VERSION 0.7
FIELDS x y z normal_x normal_y normal_z curvature
SIZE 4 4 4 4 4 4 4
TYPE F F F F F F F
COUNT 1 1 1 1 1 1 1
WIDTH 580
HEIGHT 1
VIEWPOINT 0 0 0 1 0 0 0
POINTS 580
DATA ascii
-0.051732916 0.71655774 0.12609491 0.9494766 0.1965767 0.24542381 0.020742388
0.037244469 0.71514463 0.12374152 0.92810261 -0.35527298 -0.11386856 0.011522257
-0.053472176 0.72427166 0.12648353 0.96248019 0.19499262 0.18993962 0.012067269
0.0392152 0.72010326 0.12748051 0.94292533 -0.32673708 -0.066428788 0.0086716339
0.041072715 0.72498357 0.12356863 0.94802833 -0.30690783 -0.087676063 0.0091779921
-0.055953294 0.73524398 0.12620257 0.96975911 0.17621832 0.16916147 0.0072636171
0.043750975 0.73408526 0.12410647 0.9592104 -0.27039504 -0.086742327 0.0096885189
-0.057308305 0.74494052 0.12370605 0.97337633 0.13856865 0.18366279 0.0071188826
0.04629067 0.74373543 0.12504196 0.96810645 -0.22838075 -0.10749904 0.01139727
-0.058558401 0.75354856 0.12516175 0.97558415 0.11167926 0.19071291 0.008966295
0.047966231 0.75436872 0.12428411 0.9682467 -0.19497001 -0.1590644 0.01288705
-0.059512481 0.76438057 0.12412491 0.96983093 0.082303472 0.23118201 0.00972158
0.049274169 0.76551765 0.12410811 0.95895666 -0.18264325 -0.21721245 0.013938437
-0.060197711 0.77430099 0.12491174 0.96487975 0.056942336 0.25685084 0.009196952
-0.060579762 0.77384716 0.12709816 0.96822631 0.066995814 0.24104463 0.0090849753
0.050258994 0.77547866 0.12456217 0.93981057 -0.20530979 -0.27407986 0.015120153
-0.059414387 0.78397775 0.12185333 0.94921654 0.025105843 0.31402805 0.0078679137
-0.060424667 0.78514141 0.12528096 0.95620924 0.033608403 0.29088423 0.0084357625
0.051470593 0.78386533 0.12482778 0.91713744 -0.23532368 -0.32227287 0.017362162
-0.06038972 0.79474103 0.12512678 0.94749081 0.02257471 0.3193689 0.0063686329
0.05500735 0.79567277 0.12643902 0.86230373 -0.32233182 -0.39092034 0.018344389
-0.060329024 0.80488962 0.1249633 0.93658191 0.021354226 0.35026729 0.0061258427
-0.05882569 0.80456614 0.12097658 0.92816079 0.0084815891 0.37251481 0.0061176643
0.058042124 0.80431169 0.12544596 0.80752599 -0.38114595 -0.45190549 0.020540597
-0.061113078 0.81464338 0.12663162 0.93380606 0.021643477 0.35807574 0.0063301981
-0.059880745 0.81338722 0.1234229 0.92507201 0.014057749 0.37980527 0.0055833198
0.064085782 0.81501395 0.12462939 0.7141664 -0.48295945 -0.52853668 0.020250591
-0.061118342 0.82607657 0.12567073 0.92080313 -0.0011060835 0.3910667 0.0069480082
-0.060144186 0.82110316 0.12350872 0.91906416 -0.001310652 0.39434165 0.0064945566
0.066963293 0.82085079 0.12281227 0.6605795 -0.50930357 -0.58353341 0.019731298
0.073072642 0.82544291 0.12474407 0.57057339 -0.59289974 -0.63176173 0.018691804
-0.061483108 0.834647 0.1261573 0.91228616 -0.022834182 0.41041598 0.0074737966
-0.059323031 0.83247346 0.1214838 0.8999238 -0.036957171 0.43531123 0.0066395919
0.080286659 0.83554661 0.12035862 0.42481413 -0.64772493 -0.76454234 0.022535255
0.08516863 0.8350563 0.12317076 0.3537491 -0.73096836 -0.76038378 0.023195868
0.092913099 0.8365671 0.12391648 0.21421885 -0.81232929 -0.78192765 0.020898361
-0.061516479 0.84394717 0.12682977 0.89730442 -0.054876119 0.43914288 0.0085169785
-0.060960013 0.84077811 0.12554251 0.89884043 -0.049985204 0.43641964 0.0079008471
-0.060829971 0.85482115 0.12695406 0.86944163 -0.11354212 0.48207033 0.0098366477
-0.057338618 0.86642003 0.12424179 0.81614965 -0.19380455 0.54845089 0.01010241
-0.14389525 -0.15233004 0.12969401 -0.22602238 -0.36692461 0.9024294 0.024064288
-0.13614674 -0.15163009 0.13034748 -0.10832465 -0.35431626 0.92885417 0.014598717
-0.1513236 -0.14384335 0.13099863 -0.33820966 -0.31883609 0.88578993 0.037024058
-0.14662704 -0.14463772 0.13177711 -0.25291222 -0.3259519 0.91183597 0.028933272
-0.13442978 -0.14505142 0.13210252 -0.072755493 -0.31303719 0.94698548 0.009722014
-0.12516347 -0.1447688 0.13178843 0.01180004 -0.31234804 0.9499467 0.0061473665
-0.11630548 -0.14466999 0.13092408 0.073009521 -0.31799647 0.94538182 0.0043510385
-0.10471409 -0.14243169 0.1298821 0.13906099 -0.32705709 0.9347235 0.0033486418
-0.099933282 -0.14319922 0.12891622 0.17041671 -0.3379088 0.9256407 0.0040453011
-0.15306014 -0.1350527 0.13265388 -0.36240062 -0.27943999 0.8893069 0.038041577
-0.14732556 -0.13337553 0.13439077 -0.25294596 -0.26971212 0.93083119 0.030228902
-0.13355403 -0.13587026 0.13435394 -0.064912915 -0.27954769 0.95804751 0.0094323782
-0.12500396 -0.13381149 0.13437931 0.011661801 -0.2803795 0.95998675 0.0049710842
-0.11620019 -0.13544218 0.13325781 0.063646875 -0.28977716 0.95503336 0.0039217779
-0.1052785 -0.13469197 0.13210121 0.11950646 -0.30558226 0.944677 0.0036106564
-0.095238149 -0.13284859 0.13133408 0.17361066 -0.33164743 0.92733568 0.005742847
-0.16453193 -0.12319427 0.13192266 -0.55561346 -0.23380354 0.79852122 0.050157964
-0.1543766 -0.12402444 0.13533416 -0.36672121 -0.24461432 0.89816171 0.036747333
-0.14397545 -0.12330132 0.13686757 -0.20341752 -0.24828015 0.94722193 0.020601351
-0.13511758 -0.12387216 0.13702674 -0.08490859 -0.2542384 0.96401012 0.01144671
-0.12487821 -0.12322892 0.13661329 0.0046963631 -0.26519027 0.96424085 0.0038511744
-0.1137224 -0.12468714 0.13552715 0.060104251 -0.2858884 0.95637846 0.0031578152
-0.10416636 -0.12517524 0.13457496 0.098343581 -0.30387747 0.94763899 0.0037528933
-0.096656233 -0.12298056 0.13462551 0.13331905 -0.3276009 0.93560106 0.0062369802
-0.085163832 -0.1242635 0.1325857 0.21284781 -0.36206388 0.90761197 0.010555039
-0.17041731 -0.11317147 0.13020852 -0.67308474 -0.18416421 0.71652639 0.044421747
-0.16522042 -0.11343289 0.13385935 -0.55285162 -0.19677204 0.81026071 0.035069983
-0.15405878 -0.11412313 0.13816324 -0.34342936 -0.22179963 0.91447037 0.030453041
-0.14651062 -0.11632828 0.1388398 -0.22360593 -0.23743457 0.94785714 0.023770785
-0.13491632 -0.1134188 0.13965897 -0.088672817 -0.24695797 0.96557313 0.0093939919
-0.12507534 -0.11425798 0.13886757 -0.018701684 -0.26325524 0.9646638 0.003970312
-0.11518215 -0.11307678 0.13868535 0.028129309 -0.27754879 0.96031249 0.0027034304
-0.10470284 -0.11506345 0.13749363 0.064692482 -0.30383748 0.95054317 0.0039563687
-0.095924713 -0.11461641 0.13726732 0.10410246 -0.33415505 0.93697786 0.007230985
-0.084690087 -0.1157312 0.13586462 0.1796702 -0.36972955 0.91183954 0.011161202
-0.074951895 -0.11701819 0.13327551 0.27185103 -0.40112638 0.87495947 0.013299787
-0.066577278 -0.11486415 0.13132612 0.34861541 -0.42414752 0.83599013 0.013995861
-0.17170586 -0.10267579 0.13120219 -0.68425459 -0.14408205 0.71522188 0.041113388
-0.16513084 -0.10479088 0.13593218 -0.55078244 -0.17034951 0.8174814 0.034276474
-0.15419579 -0.10754448 0.13963047 -0.35039738 -0.2026225 0.91575766 0.027167222
-0.12736826 -0.10810088 0.14066622 -0.042882156 -0.255463 0.96609199 0.004698657
-0.11462752 -0.10657188 0.14031048 0.017142553 -0.28072125 0.95963997 0.0025858341
-0.073461421 -0.10864478 0.13707109 0.24854682 -0.40939313 0.8780033 0.013120119
-0.066706531 -0.1045533 0.13711701 0.29395658 -0.43284196 0.85244101 0.01530729
-0.054973993 -0.1039951 0.13144383 0.41260943 -0.45731041 0.78790462 0.0085938899
-0.17193606 -0.094609268 0.13165289 -0.69800788 -0.10838513 0.70807344 0.034238424
-0.16672017 -0.093947656 0.13617125 -0.60274404 -0.123872 0.78838247 0.032455262
-0.053920925 -0.097017825 0.13584487 0.39490116 -0.45553243 0.79794776 0.0098569039
-0.045070257 -0.093621753 0.1314131 0.4398708 -0.47088045 0.76479614 0.0061939266
0.10109775 -0.090815626 0.1300372 0.17288676 -0.37507132 0.91078597 0.02795491
-0.17181346 -0.085053399 0.13164695 0.71349889 0.078404926 -0.69630963 0.024263753
-0.16618438 -0.084360354 0.13682327 -0.60831702 -0.09966737 0.78766906 0.030170921
-0.035200465 -0.082861312 0.13100846 0.39442152 -0.48597711 0.78012246 0.0085560074
0.084501177 -0.08386986 0.13176355 -0.01490215 -0.43387488 0.90089428 0.014048595
0.095663384 -0.084116533 0.1332573 0.09784776 -0.39984122 0.91294217 0.026219187
0.10616312 -0.084753476 0.13202736 0.25478986 -0.35891053 0.89938802 0.033531889
-0.17116424 -0.07399901 0.13169993 0.72275305 0.056253973 -0.68882179 0.022081459
-0.16782118 -0.074280165 0.13518673 -0.66439056 -0.07227207 0.74438232 0.025191911
-0.040467326 -0.079860561 0.13658944 0.39352763 -0.46055341 0.7958867 0.006594365
-0.035677977 -0.075898573 0.13592969 0.38038096 -0.46651617 0.79866058 0.0068954164
-0.026268134 -0.073824383 0.13128136 0.31405631 -0.49993205 0.80730963 0.013464014
0.025293441 -0.072523147 0.13092104 -0.089548163 -0.50909114 0.85609359 0.0019874955
0.035502922 -0.073591359 0.1317091 -0.091811754 -0.50069243 0.86074483 0.0013654114
0.045689497 -0.075607263 0.13127539 -0.095622465 -0.49845582 0.86164218 0.0014912654
0.056472983 -0.07325922 0.13336878 -0.095800556 -0.48331052 0.87020695 0.0016018265
0.065070286 -0.075830258 0.13271534 -0.10297514 -0.47731906 0.87268406 0.0024359364
0.075761527 -0.074885517 0.13547416 -0.05609785 -0.45073554 0.89101124 0.0073681329
0.086505175 -0.074379303 0.13750981 0.02903687 -0.42187107 0.90724719 0.015490626
0.094268017 -0.075584985 0.13708663 0.12212515 -0.39813966 0.90954787 0.022084253
0.10339507 -0.074227735 0.13676737 0.25154549 -0.35628587 0.90033871 0.028705843
0.11528086 -0.0725796 0.13267231 0.4596296 -0.29121584 0.8404544 0.02853022
-0.17121014 -0.0668834 0.13120712 0.73881131 0.046029251 -0.67234582 0.021504542
-0.16651213 -0.065524645 0.13630781 -0.6687808 -0.065287985 0.74092305 0.023962844
-0.031629819 -0.066515781 0.13848197 0.33158994 -0.46658751 0.82007098 0.0076751318
-0.023970922 -0.066703707 0.13465759 0.27401254 -0.4972184 0.82328218 0.013491937
-0.017753312 -0.061775528 0.13494085 0.21490112 -0.50429279 0.83660913 0.011483037
-0.0052521867 -0.062768452 0.13230273 0.081444323 -0.52142406 0.84981149 0.011568273
0.0047656661 -0.064866349 0.13154058 -0.0013040523 -0.52108657 0.85372144 0.0084176827
0.015884284 -0.066018969 0.13276921 -0.067605205 -0.50909555 0.85816854 0.0030887399
0.025268484 -0.06436041 0.13504235 -0.077432327 -0.49077681 0.86791378 0.0014896585
0.035563879 -0.062763162 0.13719296 -0.083437286 -0.48024103 0.87319773 0.0012149349
0.04519058 -0.064318545 0.13726138 -0.084672764 -0.47495461 0.87593019 0.0010947863
0.053703632 -0.064994968 0.13773234 -0.087110035 -0.47068086 0.87800646 0.0012824378
0.064529516 -0.06661199 0.13810948 -0.084074758 -0.46059272 0.88362312 0.0020349605
0.076054499 -0.069289483 0.13870239 -0.03133158 -0.4406465 0.89737529 0.0084432885
0.10763606 -0.063429959 0.13941234 0.36270586 -0.31693536 0.87643349 0.026605248
0.11499336 -0.06299451 0.13569763 0.48816863 -0.27423069 0.82937729 0.024127172
0.12199111 -0.063317962 0.13033533 0.61492848 -0.23233247 0.75424749 0.025261398
-0.16717836 -0.055129785 0.1359971 0.70457631 0.059287604 -0.70728374 0.021392118
-0.02590717 -0.059500873 0.13946444 0.27782354 -0.4824191 0.83075589 0.0090469122
-0.014193015 -0.056790002 0.13707024 0.16965283 -0.50809014 0.84449679 0.011284524
-0.0055806022 -0.055213876 0.13670564 0.087537445 -0.52166826 0.84868264 0.0091898646
0.0053484226 -0.054417405 0.13754712 0.0078338077 -0.5156095 0.85686159 0.0062547172
0.01438194 -0.057597533 0.13703208 -0.047837127 -0.5013693 0.86400425 0.002971587
0.025016623 -0.056154151 0.13928504 -0.068019077 -0.49042135 0.8688814 0.0016123548
0.033513237 -0.058493152 0.13892059 -0.076480858 -0.47587451 0.87622732 0.0012905304
0.11570051 -0.053619169 0.13770576 0.52573228 -0.25183696 0.81316364 0.022010071
0.12299372 -0.053332053 0.132138 0.65291083 -0.20863645 0.73027003 0.02196826
-0.16819593 -0.045377027 0.13540846 0.73410499 0.046499286 -0.67752165 0.016297013
0.11845173 -0.045302097 0.13788137 0.59348208 -0.22195889 0.77395147 0.018908611
0.12299953 -0.045660131 0.13376772 0.6597442 -0.19839846 0.72483552 0.019250007
-0.17062038 -0.032197982 0.13268645 0.78598851 0.010858416 -0.6181637 0.0076827342
-0.16766977 -0.036175463 0.13668062 0.74397171 0.031051334 -0.66768843 0.013467695
0.11880776 -0.036679517 0.13944548 0.61053699 -0.21028821 0.7636435 0.016760271
0.12506664 -0.034225564 0.13400455 0.70572013 -0.1759761 0.68655837 0.015236307
-0.1705627 -0.025486087 0.13270722 0.79218739 -0.0043112198 -0.61028409 0.0067261881
-0.16800696 -0.025184942 0.13673025 0.76200962 0.0049832799 -0.64754766 0.010457756
0.12507309 -0.024673786 0.13604942 0.70944226 -0.1759095 0.68287891 0.014471235
-0.1677877 -0.014978625 0.13647345 0.77918375 -0.019887306 -0.62653136 0.0089063114
0.12700009 -0.015211504 0.13600269 0.73333269 -0.16652112 0.65939933 0.012372594
0.13101402 -0.012844379 0.13175645 0.78010267 -0.15837274 0.60545576 0.011542595
-0.16737528 -0.0046577337 0.13536215 0.796489 -0.043508966 -0.60326183 0.0064730546
0.12803945 -0.0057792207 0.13728121 0.74071938 -0.16442038 0.65142852 0.01056185
0.13259862 -0.0063524484 0.13129582 0.79475671 -0.15604903 0.58704495 0.010077951
-0.16637549 0.0041329321 0.13508527 0.805601 -0.050746713 -0.59029114 0.0050690384
0.12878446 0.0038021961 0.13891251 0.7415449 -0.15855496 0.65199465 0.0088319229
0.13451205 0.0065090256 0.13229339 0.80320221 -0.14805691 0.57742393 0.0075037992
-0.16599366 0.015004706 0.13431178 0.81586653 -0.054661397 -0.57567042 0.0054569393
0.13344063 0.015088219 0.13615224 0.78295296 -0.13910607 0.60635471 0.0088598095
-0.16554575 0.025646739 0.13403521 0.82588923 -0.05982301 -0.56072503 0.0050535337
0.13677621 0.024370978 0.13390997 0.81235796 -0.111089 0.57262027 0.0068935831
-0.16508283 0.036106762 0.13382815 0.83525097 -0.079379044 -0.54423022 0.0041600564
0.1368238 0.035776138 0.13605167 0.8091687 -0.054752044 0.58503395 0.0071037291
0.14046575 0.035139427 0.13045779 0.84190023 -0.058616329 0.53646106 0.0067832158
-0.16351908 0.045453236 0.13542439 0.83629441 -0.094452299 -0.54023415 0.0045931879
0.13680995 0.045456767 0.13685906 0.80675638 0.0035546748 0.59094316 0.0076327245
0.14018051 0.046403438 0.13204339 0.83696938 0.010016032 0.5472458 0.0075119706
-0.16171415 0.05455856 0.13661239 0.83539724 -0.12151691 -0.53627831 0.0042401538
0.13803999 0.0547814 0.13473354 0.81985915 0.067950755 0.56855822 0.0074529061
-0.16134185 0.064292103 0.13321815 0.84151679 -0.1383352 -0.52245474 0.0026994494
-0.15822172 0.066374764 0.13854222 0.82677299 -0.13688733 -0.54603136 0.0049536009
0.13667178 0.065538585 0.13423114 0.81171954 0.14305553 0.56628823 0.0065540085
-0.16052109 0.073107675 0.13097897 0.8452996 -0.13255133 -0.51780838 0.0031801679
-0.15860252 0.075510979 0.13348433 0.83751869 -0.13152213 -0.5305351 0.004273755
0.13424341 0.075792365 0.13355058 0.80169463 0.19818559 0.56409043 0.0049585537
-0.15592924 0.08511433 0.13495356 0.82930303 -0.10295158 -0.549573 0.0064414442
0.12837489 0.08367601 0.13761766 0.76853418 0.21777536 0.60165614 0.0046485919
0.13218822 0.083793506 0.13241108 0.7961182 0.21863011 0.56432724 0.0039336891
-0.15291418 0.097080678 0.13715184 0.81043839 -0.042373288 -0.58446634 0.0095084226
0.12567279 0.094266407 0.13581875 0.76596701 0.22089899 0.60374212 0.0055911932
-0.15248938 0.10477162 0.13736044 0.80080283 0.0081281858 -0.59894603 0.0090446929
0.11933617 0.10344347 0.13948205 0.7374475 0.19733569 0.64593655 0.0070062443
0.12483742 0.10572392 0.13197641 0.78072739 0.18465756 0.59699374 0.0073180222
-0.15400416 0.1132856 0.13604133 0.79311752 0.069084704 -0.60534322 0.008336206
0.11730392 0.11450299 0.1385335 0.73760265 0.14561304 0.65953499 0.0089224633
0.12215176 0.11513583 0.13274385 0.77470553 0.13840365 0.61719185 0.0087127397
-0.16038619 0.12684059 0.1313284 0.79331404 0.14363332 -0.5916478 0.0054955943
-0.15541719 0.12323543 0.13654193 0.77631682 0.11719868 -0.619443 0.0071712919
0.11730941 0.12515388 0.13713562 0.74388337 0.09412358 0.661668 0.0092467042
0.12201213 0.1257188 0.13141891 0.7810905 0.085387237 0.61857599 0.0087291664
-0.16201589 0.135965 0.13292284 0.77688766 0.15882896 -0.60938567 0.0048728404
-0.15824412 0.13582218 0.13754156 0.75412041 0.14345579 -0.64091337 0.0054129302
0.11790871 0.13382107 0.13604677 0.74833411 0.054980479 0.66121721 0.0086242836
0.12237548 0.13491781 0.13069572 0.78396606 0.048595998 0.61898243 0.0075009838
-0.16197251 0.14477092 0.13658734 0.75158066 0.13050754 -0.64688528 0.0075594392
-0.15960398 0.14547594 0.13938181 0.73213947 0.11460552 -0.67154151 0.0075863595
0.11755306 0.14571679 0.13680981 0.73409671 0.033263039 0.67830372 0.0071820086
0.12214065 0.14548434 0.13137908 0.77225751 0.027775407 0.63476133 0.0066236784
-0.16687144 0.15491208 0.13371821 0.75259113 0.10298458 -0.65089667 0.011127339
0.117921 0.15613455 0.13627683 0.72418725 0.031498298 0.68894184 0.0082160123
0.12162966 0.15590909 0.13208383 0.75453329 0.017975397 0.65602946 0.0075722374
-0.17044529 0.16646902 0.13094842 0.74199986 0.06971705 -0.66782111 0.014281734
-0.16610576 0.16467406 0.13580294 0.71430528 0.038045064 -0.69881421 0.014422738
0.11701638 0.16557375 0.13648914 0.70171237 0.035089493 0.71162266 0.0070597269
0.12083043 0.16596954 0.13245912 0.73188472 0.01538812 0.68132693 0.0084528299
-0.17104995 0.17488965 0.13045809 -0.71464872 -0.028701475 0.69925141 0.016667496
-0.16604525 0.17491925 0.13522618 -0.6764186 0.013099164 0.73648506 0.016726365
0.11719647 0.17406391 0.13536081 0.68792176 0.029107485 0.72531635 0.007377292
0.12122399 0.17610827 0.13102138 0.71493906 0.0036520492 0.69923913 0.0087358588
-0.16476743 0.18449266 0.13477634 -0.6243639 0.049392916 0.77980345 0.01458547
-0.15790768 0.18735357 0.13858601 -0.5721243 0.096110106 0.81485724 0.012655544
0.11456881 0.18538278 0.13623658 0.64843756 0.012577676 0.76123309 0.009066104
0.12082458 0.18617189 0.13052465 0.6925227 -0.01304999 0.72129977 0.0079134423
-0.16334023 0.19386952 0.13415107 -0.57183689 0.05807779 0.81849557 0.012853748
-0.15362552 0.19522142 0.13929872 -0.51878184 0.11507583 0.84727997 0.0094817709
-0.14939716 0.19708735 0.14125039 -0.49037084 0.12988433 0.86188293 0.0088462299
0.10910226 0.19608957 0.13981812 0.59652925 -0.0081729628 0.80274379 0.0099914726
0.11568464 0.19448099 0.13486335 0.64296508 -0.020362245 0.76565999 0.008435145
-0.16178288 0.20270036 0.13407306 -0.53500342 0.059262108 0.84312779 0.010178635
-0.15600093 0.20347935 0.13681537 -0.50312036 0.081164919 0.8603974 0.0071704406
-0.14770409 0.20632225 0.1403743 -0.4712458 0.098823115 0.87646949 0.0066215987
0.10941008 0.20567955 0.14007369 0.59277385 -0.051352337 0.80379164 0.0090626748
0.11599797 0.20538628 0.1352064 0.6324985 -0.050307184 0.77294272 0.006153991
0.12114918 0.20339034 0.13078924 0.66496587 -0.051051296 0.7452001 0.0051905019
-0.1663354 0.21402459 0.13163663 -0.52894837 0.040846359 0.84782791 0.0068334485
-0.15594639 0.21455662 0.13591036 -0.48559162 0.05477374 0.87261546 0.0048450017
-0.14794572 0.21481077 0.13973047 -0.47157601 0.058086436 0.87997413 0.0049432009
0.11651134 0.21814255 0.13633746 0.63586146 -0.081379086 0.76753956 0.0040735258
0.12112423 0.21423924 0.1319987 0.65667087 -0.066459656 0.75136268 0.0035654772
-0.17021769 0.22810273 0.12967996 -0.55265194 0.066936865 0.83075535 0.0065688356
-0.1642842 0.22379145 0.13240409 -0.51108456 0.055964563 0.85777575 0.0040578325
-0.15464906 0.22661963 0.13672584 -0.48928928 0.051260162 0.87068158 0.0029425973
0.11720705 0.22517948 0.13680336 0.64942008 -0.090734795 0.75500363 0.0039862897
0.12240572 0.22547062 0.13229848 0.67070431 -0.072850317 0.73816997 0.0028576257
-0.16635032 0.23457979 0.1309675 -0.53744692 0.081845619 0.83943671 0.0053788889
-0.15569787 0.23448467 0.13613515 -0.50457996 0.054292854 0.86167967 0.0039470796
-0.14924794 0.23595071 0.13915943 -0.5039314 0.029161414 0.86327922 0.004043248
0.11735241 0.23414104 0.13742976 0.66822714 -0.096703961 0.73764849 0.0041382322
0.12262532 0.2362597 0.13277249 0.68925309 -0.076865532 0.72044438 0.0030947274
-0.1621649 0.24465673 0.13171758 -0.54379714 0.093352541 0.83405375 0.0058051404
-0.15288623 0.24347366 0.13666075 -0.5269143 0.054755799 0.8482343 0.0055388049
-0.14810491 0.24690716 0.13904683 -0.54307568 0.024714295 0.83935207 0.0071121766
0.11729389 0.24414651 0.1383599 0.69295222 -0.10333857 0.71355838 0.0040176185
0.12296439 0.24463306 0.13282572 0.70848429 -0.076649703 0.70156598 0.0037082564
-0.15518506 0.25659689 0.13355538 -0.58765543 0.069633625 0.80622411 0.010213714
-0.14697681 0.25482157 0.13902313 -0.57960987 0.013278809 0.81485707 0.010935402
0.11846809 0.25462568 0.13830906 0.72060448 -0.10551392 0.68532616 0.0043851375
0.12285636 0.25559357 0.13357304 0.73434377 -0.07716085 0.67437923 0.0041599013
-0.1539477 0.26636806 0.13321871 -0.63929695 0.053335391 0.76714265 0.013203274
-0.14746431 0.26485708 0.13831207 -0.62920034 -0.0034792614 0.77732027 0.013238612
0.11977228 0.2644265 0.1386546 0.74909556 -0.09576188 0.65558481 0.0050963475
0.12375823 0.26482689 0.13397256 0.76017505 -0.072821513 0.64568198 0.0051611662
-0.15349738 0.27475205 0.13309366 -0.68590641 0.032192905 0.72712767 0.017100811
-0.14728385 0.27516788 0.13886397 -0.68874192 -0.04013532 0.72390926 0.018828165
0.12467165 0.27565864 0.13521932 0.79011512 -0.05613666 0.61058378 0.0067063938
-0.15326159 0.28434339 0.1329146 0.74702179 -0.0065217759 -0.66492373 0.022005765
-0.14840528 0.28526136 0.13867745 0.74835092 0.067157909 -0.66014779 0.021711344
0.12590984 0.2856546 0.13516584 0.81981725 -0.019102899 0.57246703 0.0076250019
-0.15136419 0.29507583 0.13593426 0.80897236 0.063738912 -0.58464992 0.024642609
0.12584576 0.29631841 0.13579513 0.84958696 0.014417931 0.52752388 0.0090704225
-0.15195605 0.30603632 0.13645941 0.86307585 0.10127482 -0.49536425 0.022374913
0.12575409 0.30664632 0.13421503 0.87984157 0.048799708 0.47315326 0.0099154478
-0.1528666 0.3145411 0.13603392 0.89693856 0.12827334 -0.42476267 0.019956116
0.1246947 0.31533736 0.134353 0.9002763 0.049285337 0.43319288 0.010035598
-0.15488683 0.32700273 0.13574633 0.9308849 0.15635972 -0.33122432 0.014226409
0.12301289 0.32461578 0.13693084 0.91269332 0.0063676415 0.40935698 0.012216805
-0.15758896 0.33648276 0.13366322 0.94950396 0.16378117 -0.2678484 0.010300789
0.12311908 0.33368126 0.13534118 0.93456441 -0.032288905 0.35552701 0.011453683
-0.16027382 0.34766951 0.13506466 0.95824921 0.18917342 -0.21535726 0.0065757376
-0.15901324 0.34355479 0.13526025 0.95495397 0.18554141 -0.23343676 0.007959716
0.12333429 0.34473351 0.13589856 0.94474936 -0.10375293 0.31175193 0.013440341
-0.1622363 0.35528263 0.1351728 0.96238923 0.19332476 -0.19198078 0.0051690042
0.12448932 0.35454458 0.13709871 0.94542515 -0.17560779 0.27454382 0.010047413
-0.16446872 0.36529592 0.13488747 0.96246147 0.21800692 -0.16189471 0.0048765941
0.12729093 0.36517689 0.13525949 0.94119656 -0.24466318 0.23325844 0.0082074758
-0.16603898 0.37485531 0.1335512 0.95203382 0.2609002 -0.16056561 0.0099344151
0.12987939 0.37546021 0.13562332 0.92321104 -0.32072377 0.2126319 0.0067455051
-0.16826177 0.38489845 0.13521878 0.92351425 0.34109175 -0.17706653 0.017141234
0.1325773 0.3839089 0.13603444 0.90195513 -0.38269284 0.20013396 0.0066643576
-0.17139065 0.39462927 0.13455145 0.87911946 0.43598378 -0.19434613 0.020261746
0.13650791 0.39325479 0.13524562 0.86756009 -0.45805401 0.19522987 0.0069236173
-0.17729178 0.40490875 0.13538767 0.8038975 0.54863536 -0.23075782 0.018453514
0.13981123 0.40020591 0.1353741 0.8317436 -0.5175187 0.20106885 0.0087874196
0.14460538 0.40715164 0.13423739 0.79460347 -0.56746405 0.2165211 0.0087240171
-0.19089043 0.41818959 0.13332801 0.70662695 0.65009236 -0.27968004 0.0076833237
-0.18561354 0.4143481 0.13645338 0.72937083 0.63152254 -0.26308411 0.0095465407
0.14858752 0.4125948 0.13571259 0.76230198 -0.60441476 0.23214698 0.0077399849
0.15204632 0.41664454 0.13562158 0.74242508 -0.62250584 0.24784836 0.0079561453
-0.20224509 0.42776951 0.13269225 0.72929597 0.61225736 -0.30550504 0.0080609303
-0.19639631 0.42289495 0.13333949 0.71446103 0.63583708 -0.29233018 0.0069631329
0.15768982 0.42256671 0.13640605 0.7139619 -0.64181411 0.27998257 0.0076142661
0.16282891 0.42618322 0.13424106 0.68905646 -0.6556803 0.30874604 0.0078301989
-0.21046647 0.43769303 0.13307172 0.79194283 0.51766789 -0.32416007 0.011296063
-0.20755957 0.43367222 0.13357954 0.76165742 0.56377506 -0.31947821 0.010878102
0.16783336 0.43185705 0.13689822 0.69852072 -0.6323688 0.33497167 0.0078797732
0.17688826 0.43729094 0.13174537 0.69415861 -0.60757077 0.38602349 0.0092765959
-0.21413532 0.44498083 0.13506165 0.83053213 0.44717267 -0.33210295 0.010717713
0.17877267 0.44285327 0.13733697 0.72945058 -0.56295657 0.3887285 0.010163789
0.18464947 0.44654989 0.13302095 0.74614823 -0.52359474 0.41124031 0.0095849987
-0.22119494 0.45902389 0.13058291 0.87580973 0.33263835 -0.3498618 0.0059730471
-0.21724412 0.4537209 0.13650972 0.86390328 0.36768791 -0.34420788 0.007161017
0.1870963 0.45269686 0.13603875 0.77636045 -0.47464094 0.41474003 0.0084509607
0.19063181 0.45586523 0.13352555 0.79910409 -0.43422809 0.41599622 0.009269055
-0.22229238 0.46679688 0.1339567 0.88820428 0.27661192 -0.36686778 0.0040418399
-0.21983156 0.46281126 0.13751444 0.88316435 0.29804233 -0.36237186 0.0054705683
0.18963477 0.45994416 0.13919617 0.81193352 -0.41165125 0.41392368 0.0073699742
0.19365011 0.46362054 0.13514422 0.83593839 -0.36800283 0.40718296 0.0080405176
-0.22465953 0.47589573 0.13377769 0.89480066 0.23476508 -0.37986609 0.0026206798
0.1961634 0.47305542 0.13765539 0.86664069 -0.30419508 0.39547792 0.0056471624
0.20016465 0.47585243 0.1308381 0.89358884 -0.2668367 0.36100775 0.0078237951
-0.22634825 0.48479375 0.13543385 0.89731985 0.20638591 -0.39019221 0.002408979
0.19973236 0.48398659 0.13712533 0.90016943 -0.23647988 0.36576059 0.0058237682
0.20126396 0.48447651 0.13351963 0.91153282 -0.22155835 0.34647247 0.0056184041
-0.23056149 0.49496573 0.13177088 0.90640825 0.17987044 -0.38219661 0.0024820913
-0.22855604 0.4947038 0.13588361 0.90030229 0.17823881 -0.39712059 0.0026256577
0.20262054 0.49454799 0.1355312 0.92864239 -0.17202352 0.32880342 0.0047921683
-0.23109831 0.50436002 0.13524553 0.9067446 0.15135749 -0.39362404 0.003143949
0.20387428 0.50437212 0.13676788 0.94284415 -0.12342177 0.30959427 0.0052299295
-0.23295622 0.51380771 0.13548718 0.9157849 0.11300588 -0.38568339 0.0045083836
0.20513812 0.51342911 0.13655864 0.95635873 -0.062221866 0.2855204 0.0059116622
-0.23430708 0.52474058 0.13667423 0.92370802 0.052620739 -0.37964094 0.0065750079
0.20641518 0.52469468 0.13556647 0.96861941 0.040387135 0.24588083 0.011460143
-0.23620878 0.53717434 0.13398634 0.94027483 -0.050987605 -0.33663696 0.0095348116
0.20570914 0.53346384 0.13788129 0.96292078 0.12220602 0.24091105 0.012679404
-0.23602831 0.54523057 0.13401201 0.93731689 -0.13020848 -0.32375619 0.013148918
0.20427306 0.54714113 0.13598666 0.94054425 0.29073739 0.17797942 0.01774466
-0.23455691 0.55493277 0.13440898 0.92218071 -0.23678197 -0.30898765 0.016827768
0.20117183 0.55648822 0.13494992 0.89792705 0.4206571 0.13273732 0.020252829
-0.23197338 0.5634743 0.13403043 0.8896026 -0.35841605 -0.28419793 0.017538683
-0.22987427 0.56737715 0.13525487 0.87023741 -0.40291893 -0.28372854 0.017776052
0.195875 0.56590176 0.13345285 0.82631612 0.55821735 0.075549029 0.017994186
-0.22730416 0.57275331 0.13427442 0.83746552 -0.48214328 -0.25763917 0.017913692
0.18635447 0.57679516 0.13587929 0.72514784 0.68737298 0.046522263 0.018368356
0.19165078 0.57114261 0.13584578 0.78180212 0.61955529 0.073658735 0.018314125
-0.22140768 0.58078063 0.13503455 0.77568859 -0.58475447 -0.23810743 0.018129762
-0.21618411 0.58644831 0.13517322 0.72681892 -0.65204304 -0.21584818 0.01517271
0.16877642 0.59022051 0.13385428 -0.54704404 -0.83593917 0.045714166 0.012709097
0.17390241 0.58696711 0.13814898 -0.60525745 -0.79596496 -0.017965546 0.013895263
0.18078566 0.5817855 0.13399251 -0.65983719 -0.75241739 -0.0023791352 0.016379245
-0.21071862 0.59064233 0.13781284 0.68364674 -0.69626755 -0.21893792 0.011606132
-0.20656171 0.5950762 0.13473912 0.64174622 -0.74888867 -0.16623914 0.011311631
0.15518314 0.59763557 0.13566995 -0.43247744 -0.89840394 0.077495962 0.011017398
0.16221036 0.59395921 0.13340077 -0.48713425 -0.87039572 0.074106798 0.011521232
-0.19585524 0.6025157 0.1369794 0.56550902 -0.81378454 -0.13541518 0.0094447508
-0.18636817 0.60859996 0.13579294 0.48881549 -0.86906457 -0.078505427 0.010513118
0.10669853 0.60960335 0.1317324 -0.29032645 -0.91742879 0.27213129 0.0088914428
0.11547888 0.60811049 0.13350934 -0.26999372 -0.9335984 0.23594154 0.0084542288
0.12544507 0.60603619 0.13334577 -0.27018276 -0.94071281 0.2052674 0.0070408206
0.1351608 0.60459411 0.13614583 -0.30328807 -0.94130909 0.14865838 0.0090239272
0.14432245 0.60181242 0.1354443 -0.35390812 -0.92762214 0.11946966 0.0099243214
-0.18089901 0.61155146 0.13381781 0.44604847 -0.8943938 -0.037901737 0.0096048787
-0.17461614 0.61441141 0.13417234 0.40469864 -0.9147979 -0.015291799 0.010158006
-0.16656911 0.61710244 0.13437015 0.37848669 -0.92564189 0.010175283 0.0074062143
0.086768761 0.61791444 0.13333458 -0.3822279 -0.87232333 0.30554631 0.0067144348
0.096995391 0.61314541 0.13284004 -0.33522254 -0.89776772 0.28620347 0.0093963258
0.10589445 0.61122972 0.13715152 -0.30775592 -0.92080897 0.24007209 0.0092230393
-0.15518518 0.62060392 0.13544367 0.36632028 -0.93008739 0.035418332 0.0071836156
-0.14539126 0.62370116 0.13426964 0.37118474 -0.92605627 0.068702348 0.009490517
-0.13763234 0.62682533 0.13292019 0.37933475 -0.91934514 0.10497829 0.011089984
0.068390407 0.62838268 0.13515016 -0.42759031 -0.83025897 0.35770619 0.011729575
0.075686716 0.62386137 0.13366742 -0.41586465 -0.84605265 0.33427969 0.0083172368
0.081867941 0.62118024 0.13614798 -0.40797901 -0.86296171 0.29948142 0.0074005993
-0.12504672 0.63313752 0.13253745 0.39403787 -0.90442681 0.16461001 0.017422032
-0.11697207 0.63774288 0.13336837 0.39416635 -0.89641827 0.20386668 0.021375801
0.043972619 0.6381076 0.13186426 -0.41502994 -0.70745873 0.57492155 0.041109685
0.054034669 0.63557869 0.13504958 -0.44014236 -0.7737397 0.45600957 0.02431138
0.061235368 0.63152099 0.13451028 -0.42768139 -0.80904382 0.40362543 0.016987739
-0.11121543 0.64152437 0.13488995 0.39784724 -0.88955104 0.22634859 0.029622527
-0.10503761 0.64438897 0.13455415 0.37797892 -0.87924087 0.29051295 0.028622651
-0.093937837 0.64827168 0.13492581 0.34645352 -0.84757918 0.40278262 0.040627133
-0.085398525 0.64823174 0.13140838 0.278707 -0.80475861 0.52502376 0.047134079
-0.071337253 0.64941478 0.12969644 0.25931191 -0.67788696 0.69121528 0.055203263
-0.068754755 0.64970815 0.12928398 0.26558745 -0.65325552 0.70952511 0.055229664
0.028510161 0.64931452 0.13234732 -0.5276348 -0.43348113 0.7324807 0.082861498
0.036967587 0.64440614 0.13449101 -0.49353579 -0.6007756 0.63154358 0.061683506
0.043973021 0.64304417 0.13800238 -0.51883954 -0.66809785 0.53443098 0.051672988
-0.091580078 0.65123051 0.13852927 0.38035426 -0.83635145 0.3971045 0.046279594
-0.087480105 0.65222102 0.13817765 0.38507107 -0.81122041 0.44373414 0.049133215
-0.075746104 0.65509367 0.13589416 0.38033715 -0.71457171 0.58798915 0.057459667
-0.067563511 0.65667176 0.1336492 0.39143342 -0.61666542 0.68365973 0.058149233
0.023852175 0.65539289 0.13212675 -0.59680372 -0.2754367 0.75614679 0.089047626
0.031394783 0.65291804 0.13702732 0.62549663 0.43704957 -0.64896291 0.079620093
-0.065334782 0.66156125 0.13706183 0.49772808 -0.57195693 0.65532315 0.067117088
-0.055271111 0.664168 0.1330367 0.52348006 -0.38696334 0.76603526 0.075458735
0.01905339 0.66476995 0.1297664 -0.66785979 -0.0026757482 0.74547082 0.10538553
0.024633648 0.66523927 0.13604324 0.76538593 0.13208325 -0.63023442 0.094082482
-0.052842271 0.6753605 0.13575721 0.71925819 -0.25436351 0.64768916 0.088958085
-0.048985951 0.67692512 0.13234352 0.71751565 -0.14682026 0.6809144 0.084152818
0.021055711 0.67637229 0.12976982 0.79943979 -0.17942332 -0.57577038 0.10115397
0.022992015 0.67456716 0.13376129 0.83430433 -0.076471031 -0.54839998 0.088860258
-0.050994679 0.68378067 0.13668615 0.83724082 -0.13896906 0.5378474 0.079996131
-0.047699761 0.68497425 0.13173661 0.81306672 -0.039093029 0.58124226 0.087739572
0.025251226 0.68428528 0.13451906 0.90252674 -0.19537178 -0.39227545 0.085330963
-0.049289837 0.69451505 0.13516012 0.91848952 0.0035499453 0.40200138 0.074915603
0.028409697 0.69445437 0.13407159 0.92890394 -0.28010294 -0.24374337 0.053653479
0.030134542 0.69925171 0.13115695 0.92097503 -0.34101173 -0.19019079 0.041154012
-0.050454926 0.70477754 0.13434801 0.9570809 0.084341899 0.28734151 0.049347591
0.033078905 0.7056542 0.13350391 0.93654263 -0.33640745 -0.099579357 0.021698773
-0.052744348 0.7149753 0.13536437 0.9747473 0.13938969 0.17761847 0.025765831
0.037105229 0.71548599 0.13496533 0.94890755 -0.31386515 -0.034070082 0.009091435
-0.054246403 0.72430408 0.1353347 0.9782725 0.16625017 0.12581991 0.012654874
0.039881404 0.72350633 0.13494229 0.95024902 -0.31164226 -0.0039735218 0.0059060818
0.041152511 0.72674245 0.13048613 0.95485246 -0.29537043 -0.035158224 0.0064718775
-0.056632504 0.73581183 0.13516381 0.98111856 0.1697735 0.093702525 0.0057023615
0.043170858 0.7338478 0.13279007 0.96029007 -0.27914447 -0.018361768 0.0074101295
-0.058060423 0.7449156 0.13321921 0.98228902 0.15441309 0.10864963 0.0054327068
0.045866191 0.74443656 0.1359936 0.96369219 -0.26639608 -0.023630807 0.009646724
-0.059964295 0.75636834 0.13684484 0.98422509 0.14305855 0.1045922 0.0055442215
0.04813844 0.75368267 0.13496046 0.96681619 -0.24493761 -0.075088046 0.012366144
-0.06122499 0.76541436 0.1355159 0.98212188 0.12119059 0.14521818 0.0058491384
0.050505169 0.76478797 0.13585266 0.95642698 -0.2584973 -0.13713212 0.015271091
-0.062193405 0.77661598 0.13428231 0.97681254 0.08751525 0.19590619 0.0068808291
0.051775955 0.77494431 0.13256329 0.94009531 -0.26204237 -0.22024785 0.014591992
-0.062472202 0.78446448 0.13342454 0.97089505 0.067210384 0.23027283 0.0063438243
0.053962179 0.78514117 0.13292833 0.90684241 -0.30552146 -0.29042557 0.017642314
-0.062704645 0.79364693 0.13292775 0.96344364 0.048476744 0.26369029 0.0060448018
0.05764785 0.79322231 0.13605297 0.85858399 -0.38293839 -0.34092894 0.0166406
-0.063076973 0.80524051 0.13327931 0.95549589 0.04072487 0.29240534 0.0062384773
0.06064716 0.80157828 0.13422433 0.80227011 -0.44181341 -0.40207312 0.018471317
0.063317105 0.80533391 0.13543724 0.76474476 -0.48944402 -0.43000501 0.018540712
-0.06428466 0.81400019 0.13616766 0.95449382 0.044592127 0.29568881 0.0066954475
0.066447929 0.81260735 0.13187452 0.70453018 -0.52731097 -0.49498737 0.017940413
0.073910497 0.81670266 0.13723584 0.5933376 -0.65668833 -0.5122788 0.019081859
-0.06451299 0.82478827 0.13444935 0.94362485 0.02856061 0.33190349 0.0084747542
0.076389641 0.8212291 0.13318381 0.54336035 -0.67091167 -0.56492084 0.020980481
-0.065035805 0.83600694 0.13460785 0.93183541 0.0056751226 0.36496547 0.0091033662
-0.066856779 0.84324336 0.13901366 0.92982996 0.0069695879 0.37311593 0.010717431
-0.12260636 -0.11008528 0.13986886 -0.0088787228 -0.26339096 0.96468109 0.0031063068
-0.15486801 -0.10471797 0.14041263 -0.35165322 -0.20092645 0.91712093 0.029344672
-0.14504924 -0.10391159 0.14202563 -0.21711022 -0.2185622 0.95223451 0.019099532
-0.13544039 -0.10552091 0.14166966 -0.10638017 -0.23543766 0.96623117 0.0092112329
-0.12446727 -0.1027407 0.14194487 -0.03756902 -0.25882688 0.96544421 0.00375544
-0.10490558 -0.10384385 0.14075245 0.026044898 -0.30717522 0.95129806 0.0032439406
-0.094789326 -0.10326441 0.14117166 0.061768256 -0.34511498 0.93661594 0.0066086347
-0.085576065 -0.10338865 0.14099085 0.11822559 -0.37727374 0.91875881 0.011211997
-0.076975875 -0.10126969 0.1412939 0.18349777 -0.40037331 0.89785761 0.012038426
-0.15981977 -0.093700744 0.14026836 -0.47857052 -0.14728922 0.86577171 0.030984398
-0.15251724 -0.096501626 0.14236593 -0.3476744 -0.17858596 0.92058694 0.026865663
-0.14448433 -0.095410869 0.14419532 -0.22634515 -0.20734492 0.95237434 0.01978817
-0.13508379 -0.094910331 0.14468805 -0.12621042 -0.22961792 0.96621668 0.013384784
-0.12688936 -0.096079737 0.14399733 -0.0650713 -0.25373828 0.9654367 0.0057321358
-0.11410424 -0.095754772 0.14338364 -0.013779938 -0.28536817 0.95831919 0.0022372971
-0.10341112 -0.096858174 0.14317328 0.010370268 -0.31367564 0.94948971 0.0035536129
-0.096354447 -0.095587529 0.14403059 0.030126031 -0.33898538 0.9404279 0.0056425892
-0.0846406 -0.09475752 0.14496137 0.084712997 -0.37451586 0.92375755 0.0096601965
-0.07561639 -0.092586108 0.14554437 0.15257156 -0.400323 0.90375882 0.011548762
-0.064062364 -0.09235087 0.14312772 0.26712734 -0.42611754 0.86568171 0.011165117
-0.054310378 -0.090143651 0.14007862 0.3622444 -0.44529426 0.81887919 0.008821737
-0.16195287 -0.081390999 0.14011922 -0.55671823 -0.10683323 0.82528311 0.029537918
-0.15308997 -0.08308965 0.14428987 -0.39665815 -0.15370032 0.90526789 0.026380816
-0.14520055 -0.085095756 0.14604269 -0.26674804 -0.18573467 0.94616091 0.023404906
-0.13509175 -0.085077159 0.14690983 -0.15079366 -0.219474 0.96486276 0.014424507
-0.12339225 -0.084750801 0.1466272 -0.082843177 -0.25142094 0.96441293 0.0056857518
-0.11584803 -0.084881216 0.14658913 -0.055772904 -0.27584186 0.95959079 0.0031544941
-0.10563099 -0.085854426 0.14661787 -0.034957644 -0.3063859 0.9512701 0.0025635541
-0.094224542 -0.085628808 0.14792585 -0.004272202 -0.34054035 0.94041938 0.0046735653
-0.084227577 -0.08737608 0.14802472 0.060005091 -0.37159106 0.9268443 0.0087443432
-0.06412752 -0.084164001 0.14735112 0.23798756 -0.41372615 0.87991983 0.011332504
-0.053766154 -0.08291012 0.14350475 0.34666789 -0.43021178 0.83369261 0.0076278499
-0.048648551 -0.082387626 0.14052467 0.37664908 -0.44550702 0.81226909 0.006578628
-0.16073158 -0.075340189 0.14128628 -0.54576927 -0.10750612 0.83114737 0.029014887
-0.15214559 -0.075876303 0.14549816 -0.40546274 -0.14887865 0.90200907 0.027515778
-0.14582711 -0.072940819 0.14807995 -0.31078792 -0.17856739 0.934295 0.026358746
-0.13588428 -0.076874085 0.14855789 -0.18400934 -0.21558779 0.95940906 0.014634553
-0.12505816 -0.074692346 0.14939447 -0.12010466 -0.24826126 0.96174759 0.0088802576
-0.11438692 -0.074853577 0.14940816 -0.082653031 -0.27962708 0.95656353 0.0025651348
-0.10493134 -0.074927717 0.15012699 -0.064045131 -0.30669457 0.94971025 0.0026089107
-0.05600467 -0.074151739 0.1486582 0.29656792 -0.41392246 0.86091626 0.0084162056
-0.045758087 -0.073182188 0.14365925 0.37202165 -0.43130669 0.82205284 0.0053894455
-0.04015585 -0.069508247 0.14198798 0.36829746 -0.44359809 0.81729132 0.005049767
-0.16114783 -0.064964563 0.14138213 -0.58173203 -0.096483134 0.80763865 0.030191096
-0.15487812 -0.065905593 0.14546405 -0.47470552 -0.12986805 0.87070537 0.028632818
-0.14636502 -0.063321896 0.1497602 -0.34565076 -0.1737069 0.92375565 0.025910785
-0.050242841 -0.067558713 0.14883418 0.32843029 -0.41899776 0.84661561 0.0068451189
-0.046121713 -0.067411989 0.14663352 0.35399258 -0.42565912 0.83291 0.0054901135
-0.036644977 -0.063707463 0.14266594 0.35500655 -0.4487319 0.82037741 0.005633445
0.075074472 -0.064503551 0.14111707 -0.025828462 -0.43288109 0.90142053 0.0080764564
0.086441375 -0.066100657 0.14160581 0.064016677 -0.4089312 0.9110465 0.016241437
0.096238732 -0.064677246 0.14180698 0.18427575 -0.37059346 0.91075665 0.021008683
0.10148368 -0.062237181 0.14164105 0.27902097 -0.34057716 0.8978858 0.023153279
-0.16158496 -0.053923771 0.14220463 -0.61755961 -0.088277109 0.78156114 0.02545906
-0.15603235 -0.054234445 0.14650732 -0.52685678 -0.11938512 0.84196186 0.025899194
-0.040537354 -0.057475507 0.14810668 0.33133122 -0.43689641 0.83652914 0.0052978569
-0.035715267 -0.055358212 0.14645833 0.3261686 -0.45004824 0.83141327 0.005279256
-0.025491748 -0.053636231 0.1427381 0.2658695 -0.4848882 0.83334601 0.0085072238
-0.018174553 -0.050649881 0.14179136 0.20681873 -0.50597906 0.83749795 0.0088805975
0.02338532 -0.051953211 0.14122055 -0.055940732 -0.49385384 0.86776417 0.0017776618
0.035414238 -0.053536374 0.1415001 -0.07171531 -0.47137639 0.8790496 0.0014598826
0.045545794 -0.053690463 0.14242005 -0.074203879 -0.45797369 0.88588709 0.0016149052
0.053923056 -0.056244012 0.14228076 -0.077222712 -0.45234853 0.88850081 0.0014179586
0.06448897 -0.054951917 0.14431027 -0.059482947 -0.43359929 0.89918029 0.0026189224
0.075477935 -0.054403704 0.14626874 0.0080533829 -0.40717405 0.91365981 0.009219138
0.08334206 -0.053152777 0.14723532 0.079702027 -0.38448846 0.91976988 0.01373924
0.092050537 -0.055449761 0.1460191 0.16903488 -0.36114657 0.91709989 0.019586943
0.10445699 -0.053404368 0.14385845 0.35087714 -0.30548406 0.88528657 0.023132991
-0.16071457 -0.045080181 0.1439577 -0.62509805 -0.085408188 0.77590144 0.026559103
-0.15597633 -0.045149438 0.14792243 -0.54596859 -0.11190943 0.83188826 0.025682539
-0.032772049 -0.047672268 0.14930214 0.28376591 -0.46552733 0.83831787 0.0063089104
-0.02262448 -0.043552481 0.1478668 0.21863075 -0.50003749 0.83796102 0.0071617924
-0.014681456 -0.047396451 0.14315507 0.17036031 -0.51447785 0.84046936 0.0086557269
-0.003931249 -0.044942502 0.143656 0.07863389 -0.52794242 0.84563953 0.0055983928
0.0039794957 -0.044935208 0.14356713 0.022241406 -0.52511793 0.85088474 0.0042630741
0.015453381 -0.047273759 0.14296088 -0.030893967 -0.50673258 0.86156136 0.0024621673
0.022611791 -0.043240935 0.14591748 -0.033767909 -0.49651831 0.86738515 0.0021792436
0.034798082 -0.045143645 0.14572376 -0.052970439 -0.46965164 0.8812862 0.0023119349
0.047032274 -0.046060234 0.14635694 -0.060511906 -0.44703194 0.8924889 0.0020203509
0.055470046 -0.046308141 0.14722848 -0.059657518 -0.43101677 0.90038776 0.0020974237
0.063309848 -0.045228507 0.14889941 -0.039493464 -0.41045621 0.91108125 0.0033265869
0.084764034 -0.048872795 0.14936653 0.092732519 -0.36887789 0.92544943 0.014081598
0.095908947 -0.047850724 0.14833175 0.2421644 -0.32568797 0.91395462 0.020498207
0.10544465 -0.044621527 0.14601135 0.38633069 -0.28286451 0.87794703 0.021238165
0.11476941 -0.045935847 0.14036494 0.52708775 -0.24551514 0.81391644 0.019462926
-0.16291772 -0.034601673 0.14288196 -0.6793896 -0.052424077 0.7325604 0.017050819
-0.15784582 -0.034223095 0.1480598 -0.60491711 -0.073824778 0.79295027 0.022215778
-0.012936138 -0.040173445 0.14788617 0.14517358 -0.52291268 0.84000099 0.0067978022
-0.0045265383 -0.037940152 0.14860158 0.08211311 -0.53145736 0.84319484 0.004533466
0.0037450069 -0.03719509 0.14886725 0.039169423 -0.53062963 0.84680873 0.0034294087
0.014385407 -0.038092818 0.14877425 -0.0073808869 -0.51366681 0.85796505 0.0021426948
0.020191235 -0.037655361 0.14921358 -0.015668284 -0.50352216 0.86384606 0.0022849611
0.032506149 -0.038727701 0.14913645 -0.033220746 -0.47604495 0.87882495 0.0026904335
0.044196021 -0.039008763 0.14962883 -0.044308688 -0.44897082 0.89248383 0.0029720478
0.057646684 -0.03924869 0.150886 -0.037073266 -0.40991271 0.91141593 0.0032276043
0.10878367 -0.033754315 0.14742966 0.46141788 -0.24459209 0.85307479 0.019100744
0.11266433 -0.034199037 0.14477068 0.51971972 -0.23173887 0.82236576 0.02106191
-0.16309212 -0.024836373 0.14341983 0.7006622 0.026122924 -0.71351928 0.01541988
-0.15862998 -0.027764354 0.14793333 -0.63075405 -0.050979145 0.77451271 0.020468356
0.1078568 -0.027769458 0.14945425 0.45612043 -0.2345645 0.85845053 0.019161664
0.11568049 -0.024275888 0.14480399 0.57573098 -0.20490481 0.79166204 0.01656309
-0.1624749 -0.01597688 0.14409994 0.7103551 0.0029020607 -0.7040447 0.01546551
-0.15817727 -0.017272061 0.14870308 -0.64931589 -0.023434207 0.76025224 0.019566247
0.11696073 -0.014947024 0.14603472 0.59757543 -0.19320515 0.77828234 0.01332232
0.12148076 -0.013590813 0.14231169 0.66115957 -0.18005107 0.72858715 0.013511321
-0.16126929 -0.0046064262 0.14432172 0.72677845 -0.01848671 -0.68697369 0.012671834
-0.15810192 -0.0066161924 0.14834267 -0.67960835 0.0022213997 0.73363507 0.019495819
0.11761778 -0.0045302128 0.14798525 0.60609287 -0.18112421 0.77461231 0.011614052
0.12292977 -0.0055619129 0.1427467 0.67788863 -0.17262433 0.71468574 0.010223182
-0.16122575 0.0046778838 0.14333481 0.75397581 -0.030425953 -0.65633214 0.012768179
-0.15707028 0.004831404 0.14831065 -0.7037186 0.0072345845 0.71054524 0.01785031
0.11921454 0.0021027764 0.14822498 0.62527281 -0.17187071 0.76174819 0.011100704
0.12244746 0.0036131826 0.14561452 0.66543835 -0.1662661 0.72772872 0.011023052
-0.16139144 0.015200639 0.14198351 0.77849716 -0.034798153 -0.62670881 0.010714042
-0.15749942 0.015540114 0.14718023 0.73784727 -0.01672834 -0.67488945 0.015894145
0.12304141 0.012933435 0.14724541 0.66809994 -0.15176541 0.72843152 0.0096032452
-0.16131108 0.026374178 0.14130165 0.80072904 -0.046274725 -0.59724849 0.008001795
-0.15665349 0.025438236 0.14803307 0.75397795 -0.018607806 -0.65708017 0.01643591
0.12708379 0.025271818 0.14607725 0.70973754 -0.11445493 0.69511825 0.0097097261
0.13177329 0.026723249 0.14105812 0.75949126 -0.10386846 0.64224708 0.0074825464
-0.1610606 0.035760913 0.14106105 0.81134093 -0.060413044 -0.58147854 0.0073300572
-0.15777126 0.035926551 0.14637358 0.78483838 -0.043268342 -0.61835307 0.0095014097
0.12705162 0.036647715 0.14797617 0.70998979 -0.057893369 0.70184278 0.0089842919
0.1318958 0.034367554 0.14226452 0.76075429 -0.066379279 0.64576322 0.0079070209
-0.16047348 0.043817002 0.14138971 0.81897396 -0.082606137 -0.56799179 0.0065548462
-0.15766057 0.045900095 0.14592251 0.79734886 -0.077424824 -0.59853959 0.0080391495
0.12761195 0.046641145 0.14794894 0.72224706 0.00025979802 0.69171369 0.0092410222
0.13224429 0.045506924 0.1428813 0.76353669 -0.0010060177 0.64580637 0.0091538327
-0.15582992 0.054841328 0.14705901 0.79322958 -0.1077896 -0.59934896 0.0077616107
0.12854196 0.05433853 0.14676033 0.73463696 0.051280845 0.67669129 0.00931344
0.13209055 0.055165276 0.14261217 0.76734483 0.06546285 0.63788664 0.0085069621
-0.15508775 0.062945537 0.14550294 0.79971194 -0.13247012 -0.58560354 0.0063162595
0.12690738 0.065782651 0.1464937 0.7335515 0.13422275 0.66628611 0.0070417291
0.13116488 0.063448176 0.1420895 0.76581311 0.12376779 0.63107222 0.0074254549
-0.15251659 0.075167187 0.14433523 0.79698986 -0.14247015 -0.58713579 0.0069318465
-0.14898741 0.075171225 0.14954516 0.76650149 -0.14613427 -0.62555981 0.008656254
0.12643845 0.072941564 0.14483042 0.73832697 0.17696726 0.65092897 0.0063858591
0.13043055 0.0700818 0.14090651 0.76805323 0.16367696 0.61920881 0.0058566108
-0.15131433 0.084076174 0.14296463 0.79772007 -0.11638332 -0.59176016 0.007397701
-0.14704011 0.085243009 0.14833671 0.76341748 -0.12127273 -0.63482857 0.0095208175
0.11839263 0.085178882 0.14852938 0.69733948 0.21838573 0.68269932 0.0044873394
0.12385654 0.083564788 0.14320627 0.73509949 0.21774235 0.64207733 0.0045069312
-0.14831142 0.094179302 0.14447998 0.77815479 -0.073880836 -0.6237275 0.010297378
0.11620269 0.095603362 0.14614806 0.70038164 0.21982594 0.67911369 0.0053485152
0.12134204 0.091747887 0.14225438 0.73114312 0.21959178 0.64593309 0.004983549
-0.14807551 0.10518785 0.14349799 0.76921165 -0.0047940928 -0.63897973 0.010233264
0.1130241 0.10588085 0.14546967 0.69586319 0.19019429 0.6926254 0.0081904372
-0.1506573 0.11474537 0.1407277 0.76981169 0.062489588 -0.63522565 0.0089853154
-0.14613461 0.11575852 0.14644414 0.73630452 0.047433857 -0.67511994 0.0091348467
0.10843194 0.11477964 0.14752498 0.67256498 0.15339935 0.72407067 0.0080974465
0.11297 0.11416698 0.14320624 0.70593143 0.15128317 0.69201785 0.0092574721
-0.15183605 0.12593569 0.14179492 0.7461459 0.11154876 -0.65640825 0.0074404017
-0.14685248 0.12381649 0.14680482 0.72199583 0.083435751 -0.68705964 0.0088570975
