# .PCD v0.7 - Point Cloud Data file format
VERSION 0.7
FIELDS x y z rgb
SIZE 4 4 4 4
TYPE F F F F
COUNT 1 1 1 1
WIDTH 1113
HEIGHT 1
VIEWPOINT 0 0 0 1 0 0 0
POINTS 1113
DATA ascii
0.00015983557 -0.33791003 2.066 -2.5281849e+38
0.0058281128 -0.33790982 2.066 -2.4881517e+38
0.011496369 -0.33790922 2.066 -2.5014961e+38
0.017172894 -0.33807173 2.0670002 -2.5148409e+38
0.022832733 -0.33790666 2.066 -2.5148409e+38
0.028487002 -0.33774123 2.0650001 -2.4748077e+38
0.034119144 -0.33741188 2.0630002 -2.4615675e+38
0.039836589 -0.33789974 2.066 -2.4749119e+38
0.045526307 -0.3380602 2.0670002 -2.4882564e+38
0.051246103 -0.33838373 2.069 -2.4615675e+38
0.056894157 -0.33821625 2.0680001 -2.4482233e+38
0.062657535 -0.3387025 2.0710001 -2.4749122e+38
0.068437129 -0.33918837 2.0740001 -2.4882566e+38
0.074340157 -0.34016439 2.0800002 -2.4615677e+38
0.080275834 -0.34114 2.0860002 -2.4615677e+38
0.086202897 -0.34195164 2.0910001 -2.4481189e+38
0.092332952 -0.34341696 2.1000001 -2.4614116e+38
0.098418608 -0.34455472 2.1070001 -2.4347228e+38
0.10469066 -0.34618267 2.1170001 -2.4348789e+38
0.11101717 -0.34781009 2.1270001 -2.4348789e+38
0.11761785 -0.3500911 2.141 -2.4082429e+38
0.12464094 -0.35335267 2.161 -2.3549695e+38
0 0 0 -1.7014118e+38
0 0 0 -1.7014118e+38
0 0 0 -1.7014118e+38
0 0 0 -1.7014118e+38
0.16556008 -0.35213578 2.154 -2.3684701e+38
0.17002836 -0.34918132 2.1360002 -2.3416251e+38
0.17480914 -0.34704408 2.1230001 -2.3681569e+38
0.17968829 -0.3452335 2.112 -2.4215345e+38
0.18459436 -0.34358615 2.102 -2.4480672e+38
0.18944506 -0.34193859 2.092 -2.4213784e+38
0.19452022 -0.34078112 2.085 -2.4881004e+38
0.19955643 -0.33962342 2.0780001 -2.4347228e+38
0.20475118 -0.33879232 2.0730002 -2.5014448e+38
0.20991786 -0.33796093 2.0680001 -2.4480672e+38
0.21526495 -0.33745611 2.0650001 -2.4881004e+38
0.220488 -0.33678764 2.0610001 -2.4614116e+38
0.2257981 -0.33628225 2.0580001 -2.474756e+38
0.23086618 -0.33544984 2.0530002 -2.4480672e+38
0.23613656 -0.33494395 2.0500002 -2.4614633e+38
0.24162556 -0.33476451 2.049 -2.5148409e+38
0.24747041 -0.33507502 2.0510001 -2.5548741e+38
0.25295517 -0.33489501 2.0500002 -2.4614116e+38
0.25805533 -0.3342247 2.046 -2.4480672e+38
0.26326168 -0.33371753 2.043 -2.4480672e+38
0.26884559 -0.33370012 2.043 -2.4480672e+38
0.27483171 -0.33417246 2.046 -2.4480672e+38
0.28151876 -0.33546108 2.0540001 -2.5415297e+38
0.28852817 -0.33707589 2.0640001 -2.5949069e+38
0.29544893 -0.33852702 2.0730002 -2.6616807e+38
0.30227268 -0.33981436 2.0810001 -2.6883695e+38
0.30884331 -0.34077477 2.0870001 -2.6217513e+38
0.316953 -0.34336761 2.1030002 -2.5951674e+38
0 0 0 -1.7014118e+38
0 0 0 -1.7014118e+38
0 0 0 -1.7014118e+38
0 0 0 -1.7014118e+38
0 0 0 -1.7014118e+38
0 0 0 -1.7014118e+38
-0.02843821 -0.34670717 2.085 -3.329321e+38
-0.022642162 -0.34554505 2.0780001 -2.3818674e+38
-0.016900742 -0.34471512 2.0730002 -2.461672e+38
-0.01120833 -0.34454983 2.072 -2.4882564e+38
-0.0055186991 -0.3442179 2.0700002 -2.5014961e+38
0.00016013319 -0.34421808 2.0700002 -2.5014961e+38
0.005841786 -0.34438416 2.0710001 -2.5014961e+38
0.011528904 -0.34454978 2.072 -2.4881517e+38
0.017196545 -0.34421617 2.0700002 -2.5014965e+38
0.0228642 -0.34404838 2.069 -2.4748077e+38
0.028540073 -0.34404644 2.069 -2.4614633e+38
0.034182772 -0.34371156 2.0670002 -2.4615675e+38
0.039852936 -0.34370881 2.0670002 -2.4615675e+38
0.045544971 -0.34387192 2.0680001 -2.4348787e+38
0.051267102 -0.34420094 2.0700002 -2.4615675e+38
0.0569725 -0.34436318 2.0710001 -2.4749119e+38
0.062773935 -0.34502387 2.075 -2.4615675e+38
0.068597078 -0.34568411 2.079 -2.4482231e+38
0.074477665 -0.34651023 2.0840001 -2.4480672e+38
0.080385387 -0.34733582 2.089 -2.4347745e+38
0.086361483 -0.34832734 2.095 -2.4481189e+38
0.092502065 -0.34981716 2.1040001 -2.474756e+38
0.098644964 -0.3511402 2.112 -2.4215345e+38
0.10497974 -0.35296163 2.1230001 -2.4615677e+38
0.11137444 -0.35478252 2.1340001 -2.4348789e+38
0.11804879 -0.35726789 2.1490002 -2.3682612e+38
0.12509333 -0.36058399 2.1690001 -2.3549695e+38
0 0 0 -1.7014118e+38
0 0 0 -1.7014118e+38
0 0 0 -1.7014118e+38
0 0 0 -1.7014118e+38
0.16577889 -0.35851586 2.1570001 -2.2883521e+38
0.17057349 -0.35617697 2.1430001 -2.3683139e+38
0.17553782 -0.35433647 2.1320002 -2.3682096e+38
0.18044131 -0.35249567 2.1210001 -2.3681569e+38
0.18528391 -0.35065463 2.1100001 -2.4347228e+38
0.18988457 -0.34848103 2.0970001 -2.4480672e+38
0.19497313 -0.34730431 2.0900002 -2.4480672e+38
0.20002273 -0.34612733 2.0830002 -2.4614116e+38
0.20523082 -0.34528235 2.0780001 -2.474756e+38
0.2101064 -0.34393871 2.0700002 -2.474756e+38
0.21525019 -0.34309325 2.0650001 -2.474756e+38
0.2204729 -0.34241363 2.0610001 -2.4614633e+38
0.22578274 -0.34189996 2.0580001 -2.5148409e+38
0.23085055 -0.34105375 2.0530002 -2.4748077e+38
0.2362358 -0.3407056 2.0510001 -2.4614629e+38
0.24196309 -0.34085551 2.052 -2.5415297e+38
0.24757449 -0.34083906 2.052 -2.5148409e+38
0.25293833 -0.34049007 2.0500002 -2.4480672e+38
0.25803822 -0.33980864 2.046 -2.4347228e+38
0.26350203 -0.3396253 2.0450001 -2.474756e+38
0.26935434 -0.33993986 2.0470002 -2.4881521e+38
0.27615699 -0.34141645 2.056 -2.5148405e+38
0.28314507 -0.34305874 2.066 -2.5682699e+38
0.2899074 -0.34436846 2.0740001 -2.6216475e+38
0.29657003 -0.34551179 2.0810001 -2.6883695e+38
0.30297968 -0.34632272 2.0860002 -2.6750251e+38
0.30941567 -0.34713319 2.0910001 -2.6084073e+38
0.31708378 -0.34927145 2.1040001 -2.5551342e+38
0 0 0 -1.7014118e+38
0 0 0 -1.7014118e+38
0 0 0 -1.7014118e+38
0 0 0 -1.7014118e+38
0 0 0 -1.7014118e+38
0 0 0 -1.7014118e+38
-0.02849064 -0.35307679 2.089 nan
-0.022673156 -0.35172659 2.0810001 -2.3819199e+38
-0.016923938 -0.35088304 2.0760002 -2.4482761e+38
-0.011218312 -0.350546 2.0740001 -2.5281336e+38
-0.0055236183 -0.35020861 2.072 -2.5148409e+38
0.00016027593 -0.35020879 2.072 -2.5014965e+38
0.0058469907 -0.35037759 2.0730002 -2.4881521e+38
0.011533608 -0.35037696 2.0730002 -2.4748077e+38
0.017211873 -0.35020685 2.072 -2.4881521e+38
0.022884592 -0.35003632 2.0710001 -2.5148409e+38
0.028551739 -0.34986538 2.0700002 -2.4881521e+38
0.034180224 -0.34935603 2.0670002 -2.4881521e+38
0.039849963 -0.34935322 2.0670002 -2.4615675e+38
0.045563601 -0.34968799 2.069 -2.4615675e+38
0.051312815 -0.35019144 2.072 -2.4749119e+38
0.057078294 -0.35069442 2.075 -2.4615675e+38
0.062890269 -0.35136595 2.079 -2.4615675e+38
0.068690971 -0.35186809 2.082 -2.4748077e+38
0.074507877 -0.35236979 2.085 -2.4614633e+38
0.080456398 -0.353378 2.0910001 -2.5014965e+38
0.086602427 -0.35506177 2.1010001 -2.4481189e+38
0.092802972 -0.35674503 2.1110001 -2.4614116e+38
0.098964632 -0.35808989 2.1190002 -2.4215345e+38
0.10521923 -0.3596032 2.128 -2.4348789e+38
0.11162721 -0.36145413 2.1390002 -2.4215345e+38
0.11831477 -0.36398029 2.154 -2.3549168e+38
0.12531486 -0.3671819 2.1730001 -2.355021e+38
0 0 0 -1.7014118e+38
0 0 0 -1.7014118e+38
0 0 0 -1.7014118e+38
0.1662281 -0.36541805 2.1630001 -2.6753914e+38
0.17095922 -0.3628718 2.148 -2.3282807e+38
0.17601927 -0.36117005 2.138 -2.3549168e+38
0.18093887 -0.35929909 2.1270001 -2.4213784e+38
0.18570982 -0.35725898 2.115 -2.4347228e+38
0.19032387 -0.35504973 2.102 -2.474756e+38
0.19523925 -0.35351589 2.0930002 -2.474756e+38
0.20039275 -0.35248855 2.0870001 -2.4614116e+38
0.2056115 -0.35162979 2.082 -2.4614116e+38
0.21059921 -0.35043296 2.075 -2.474756e+38
0.21565217 -0.34940481 2.069 -2.4614116e+38
0.22067162 -0.34837642 2.0630002 -2.4615675e+38
0.2257672 -0.34751663 2.0580001 -2.4482231e+38
0.23083474 -0.34665662 2.0530002 -2.4748077e+38
0.23610453 -0.34613404 2.0500002 -2.4881521e+38
0.24182878 -0.34628657 2.0510001 -2.5014965e+38
0.24743712 -0.34626991 2.0510001 -2.4614633e+38
0.25304469 -0.34625295 2.0510001 -2.4215345e+38
0.25827321 -0.34572929 2.0480001 -2.4215345e+38
0.26387104 -0.34571177 2.0480001 -2.4748077e+38
0.27012599 -0.34653801 2.0530002 -2.5815629e+38
0.27734762 -0.34854531 2.0650001 -2.6749734e+38
0.28463399 -0.35055217 2.0770001 -2.6216475e+38
0.29142597 -0.35188347 2.085 -2.6349919e+38
0.29783335 -0.35270804 2.0900002 -2.6216475e+38
0.30426726 -0.35353231 2.095 -2.7417471e+38
0.31087554 -0.35452497 2.1010001 -2.6084073e+38
0.31872123 -0.35686707 2.115 -2.5951674e+38
0 0 0 -1.7014118e+38
0 0 0 -1.7014118e+38
0 0 0 -1.7014118e+38
0 0 0 -1.7014118e+38
0 0 0 -1.7014118e+38
0 0 0 -1.7014118e+38
0 0 0 -1.7014118e+38
-0.028529404 -0.35929543 2.092 nan
-0.022715025 -0.35809517 2.085 -2.3819199e+38
-0.016955266 -0.35723794 2.0800002 -2.4482761e+38
-0.011233691 -0.35672376 2.0770001 -2.4749122e+38
-0.0055311983 -0.35638088 2.075 -2.5148409e+38
0.00016049587 -0.35638109 2.075 -2.5014965e+38
0.0058550108 -0.35655266 2.0760002 -2.4881521e+38
0.0115383 -0.35620844 2.0740001 -2.5148409e+38
0.017202267 -0.35569209 2.0710001 -2.5014965e+38
0.022882866 -0.35569057 2.0710001 -2.5014961e+38
0.028549587 -0.35551691 2.0700002 -2.5014961e+38
0.034194183 -0.35517102 2.0680001 -2.4881517e+38
0.039866243 -0.35516825 2.0680001 -2.5014965e+38
0.045604214 -0.35568023 2.0710001 -2.4615675e+38
0.051358487 -0.35619181 2.0740001 -2.5014965e+38
0.057129022 -0.35670292 2.0770001 -2.5014965e+38
0.062946051 -0.35738534 2.0810001 -2.4748077e+38
0.068751812 -0.35789561 2.0840001 -2.4614633e+38
0.074609503 -0.35857713 2.0880001 -2.4881521e+38
0.080527343 -0.35942999 2.0930002 -2.4614633e+38
0.086719617 -0.36131269 2.1040001 -2.4881521e+38
0.092971899 -0.36319491 2.115 -2.4348787e+38
0.099190764 -0.36473325 2.1240001 -2.4348789e+38
0.10550807 -0.3664428 2.1340001 -2.4482233e+38
0.1119842 -0.36849526 2.1460001 -2.4348789e+38
0.11863557 -0.37089062 2.1600001 -2.3416766e+38
0.12576692 -0.37448734 2.181 -2.355021e+38
0 0 0 -1.7014118e+38
0 0 0 -1.7014118e+38
0.16675396 -0.37252358 2.1700001 -2.7020802e+38
0.17142437 -0.3697646 2.154 -2.3549168e+38
0.17650051 -0.36803535 2.1440001 -2.3815013e+38
0.18143627 -0.36613423 2.1330001 -2.4347228e+38
0.18622331 -0.36406118 2.1210001 -2.4080339e+38
0.19076298 -0.36164463 2.1070001 -2.4480672e+38
0.19541191 -0.35957119 2.095 -2.4480672e+38
0.20037855 -0.35818404 2.0870001 -2.4480672e+38
0.2053995 -0.35696828 2.0800002 -2.4480672e+38
0.21048293 -0.35592386 2.0740001 -2.4614116e+38
0.21574132 -0.35522243 2.0700002 -2.4482233e+38
0.22087014 -0.35434905 2.0650001 -2.4482233e+38
0.22597092 -0.35347551 2.0600002 -2.4748077e+38
0.23115605 -0.35277319 2.056 -2.4748077e+38
0.23654892 -0.35241386 2.0540001 -2.4881521e+38
0.24228381 -0.35256892 2.0550001 -2.5014965e+38
0.24778217 -0.35238054 2.0540001 -2.4748077e+38
0.25327429 -0.3521919 2.0530002 -2.4215345e+38
0.258508 -0.35165986 2.0500002 -2.4614633e+38
0.26449749 -0.35215676 2.0530002 -2.5281853e+38
0.27089733 -0.35316789 2.059 -2.6749738e+38
0.27853787 -0.35572231 2.0740001 -2.6482846e+38
0.28571138 -0.35759011 2.085 -2.6483363e+38
0.29266471 -0.3591145 2.0940001 -2.6483363e+38
0.29909641 -0.35995251 2.0990002 -2.7150583e+38
0.30599019 -0.36130455 2.1070001 -2.661629e+38
0.31277886 -0.36248472 2.1140001 -2.6350961e+38
0.32081038 -0.36503622 2.1290002 -2.5551869e+38
0 0 0 -1.7014118e+38
0 0 0 -1.7014118e+38
0 0 0 -1.7014118e+38
0 0 0 -1.7014118e+38
0 0 0 -1.7014118e+38
0 0 0 -1.7014118e+38
0 0 0 -1.7014118e+38
-0.028513599 -0.36483145 2.0910001 nan
-0.022658827 -0.36291414 2.0800002 -2.3018535e+38
-0.01692952 -0.36239222 2.0770001 -2.4349317e+38
-0.011227426 -0.36221883 2.0760002 -2.4749122e+38
-0.0055334424 -0.36221948 2.0760002 -2.5014965e+38
0.00016048363 -0.3620452 2.075 -2.5014965e+38
0.0058517442 -0.36204496 2.075 -2.4881521e+38
0.011531857 -0.36169532 2.0730002 -2.5148409e+38
0.017217573 -0.36169428 2.0730002 -2.5281853e+38
0.022914268 -0.36186716 2.0740001 -2.5014961e+38
0.028602578 -0.36186519 2.0740001 -2.5148405e+38
0.034257714 -0.36151382 2.072 -2.5148405e+38
0.039921038 -0.36133653 2.0710001 -2.4881521e+38
0.04564479 -0.36168224 2.0730002 -2.4748077e+38
0.051379345 -0.36202744 2.075 -2.5148409e+38
0.057179689 -0.36272117 2.079 -2.4881004e+38
0.063001774 -0.3634145 2.0830002 -2.4881004e+38
0.068812579 -0.36393288 2.0860002 -2.4614116e+38
0.07474678 -0.36497423 2.092 -2.4614116e+38
0.080752105 -0.36618957 2.0990002 -2.4614116e+38
0.086919151 -0.36792776 2.1090002 -2.4748077e+38
0.09318468 -0.36983994 2.1200001 -2.4348787e+38
0.099416807 -0.37140277 2.1290002 -2.4215343e+38
0.10579679 -0.37331393 2.1400001 -2.4482233e+38
0.11208018 -0.37470126 2.148 -2.4082944e+38
0.11873657 -0.3771348 2.1620002 -2.3683654e+38
0 0 0 -1.7014118e+38
0 0 0 -1.7014118e+38
0 0 0 -1.7014118e+38
0.16758698 -0.38036373 2.181 -2.6487022e+38
0.17180978 -0.37651461 2.1590002 -2.39495e+38
0.17657001 -0.37406039 2.1450002 -2.3414681e+38
0.18150817 -0.37212911 2.1340001 -2.3946895e+38
0.18656103 -0.37054628 2.125 -2.4347228e+38
0.1912019 -0.36826578 2.112 -2.4080339e+38
0.1956777 -0.36581072 2.098 -2.4213784e+38
0.20055622 -0.36422718 2.089 -2.4614116e+38
0.20577982 -0.36334091 2.0840001 -2.4749122e+38
0.21107689 -0.36262864 2.0800002 -2.4348789e+38
0.21624713 -0.36174178 2.075 -2.4482233e+38
0.22117546 -0.36050597 2.0680001 -2.4348789e+38
0.22617446 -0.35944426 2.062 -2.4749119e+38
0.23136479 -0.35873091 2.0580001 -2.5014965e+38
0.23676281 -0.35836595 2.056 -2.4749119e+38
0.24226706 -0.35817498 2.0550001 -2.4748077e+38
0.2476445 -0.35780945 2.0530002 -2.4347228e+38
0.25313357 -0.35761786 2.052 -2.4348789e+38
0.25861645 -0.35742605 2.0510001 -2.4748077e+38
0.26460838 -0.35793099 2.0540001 -2.5548741e+38
0.27140528 -0.35948113 2.0630002 -2.6616294e+38
0.27878779 -0.36172774 2.0760002 -2.7150066e+38
0.28596643 -0.36362538 2.0870001 -2.6482846e+38
0.29320434 -0.36552256 2.098 -2.661629e+38
0.29978907 -0.36654815 2.1040001 -2.6082513e+38
0.30684143 -0.36809605 2.1130002 -2.661629e+38
0.31379411 -0.36946929 2.1210001 -2.6217e+38
0.32199502 -0.3722356 2.1370001 -2.6085647e+38
0 0 0 -1.7014118e+38
0 0 0 -1.7014118e+38
0 0 0 -1.7014118e+38
0 0 0 -1.7014118e+38
0 0 0 -1.7014118e+38
0 0 0 -1.7014118e+38
0 0 0 -1.7014118e+38
0 0 0 -1.7014118e+38
0 0 0 -1.7014118e+38
-0.02266798 -0.36876798 2.0810001 -2.3151979e+38
-0.016920071 -0.36788347 2.0760002 -2.461672e+38
-0.011215749 -0.36753014 2.0740001 -2.4749122e+38
-0.0055330172 -0.3678852 2.0760002 -2.4748077e+38
0.00016054865 -0.36788541 2.0760002 -2.474756e+38
0.0058512939 -0.36770794 2.075 -2.4881521e+38
0.011536532 -0.36753008 2.0740001 -2.5014448e+38
0.017232856 -0.36770615 2.075 -2.4881521e+38
0.022945652 -0.36805907 2.0770001 -2.5014965e+38
0.028627962 -0.36787987 2.0760002 -2.5014965e+38
0.03427162 -0.36734581 2.0730002 -2.5148409e+38
0.0399758 -0.36752015 2.0740001 -2.5281849e+38
0.045729354 -0.36804843 2.0770001 -2.4881517e+38
0.051474445 -0.36839908 2.079 -2.4748077e+38
0.057230324 -0.36874935 2.0810001 -2.474756e+38
0.063027203 -0.36927629 2.0840001 -2.4881004e+38
0.068906277 -0.37015718 2.089 -2.4881004e+38
0.074919723 -0.37156925 2.0970001 -2.4614116e+38
0.080976754 -0.37298077 2.105 -2.5014448e+38
0.087077379 -0.37439185 2.1130002 -2.4881004e+38
0.093265504 -0.37597963 2.1220002 -2.4480672e+38
0.099409282 -0.37721258 2.1290002 -2.4615677e+38
0.1059371 -0.37968522 2.1430001 -2.4348789e+38
0.11222824 -0.38109431 2.151 -2.4215345e+38
0.11894727 -0.38374311 2.1660001 -2.3817098e+38
0 0 0 -1.7014118e+38
0 0 0 -1.7014118e+38
0 0 0 -1.7014118e+38
0.16834296 -0.38808578 2.1910002 -2.8221795e+38
0.17227456 -0.38346791 2.1650002 -2.3683654e+38
0.17680396 -0.38044396 2.148 -2.3816056e+38
0.18166499 -0.37830549 2.1360002 -2.4213784e+38
0.1868986 -0.37705222 2.1290002 -2.4480672e+38
0.19164065 -0.37491319 2.1170001 -2.4213784e+38
0.19612984 -0.37241977 2.1030002 -2.4614116e+38
0.20082976 -0.37045735 2.092 -2.4615677e+38
0.20606124 -0.36955726 2.0870001 -2.4482233e+38
0.21136621 -0.36883396 2.0830002 -2.4749122e+38
0.21654436 -0.36793327 2.0780001 -2.4348789e+38
0.22137366 -0.36650118 2.0700002 -2.4081901e+38
0.22637783 -0.36542296 2.0640001 -2.4881004e+38
0.23157333 -0.36469856 2.0600002 -2.4615677e+38
0.23709166 -0.36450499 2.059 -2.4348789e+38
0.24260381 -0.36431113 2.0580001 -2.4615677e+38
0.24774793 -0.36358592 2.0540001 -2.4215345e+38
0.2531161 -0.36321449 2.052 -2.4348789e+38
0.25859869 -0.36301979 2.0510001 -2.4615675e+38
0.26497677 -0.36406374 2.0570002 -2.5682185e+38
0.27178147 -0.36563817 2.066 -2.6883182e+38
0.27917174 -0.36792004 2.079 -2.7416958e+38
0.28608418 -0.36949363 2.0880001 -2.6349406e+38
0.29346421 -0.37159759 2.1000001 -2.6883182e+38
0.3000541 -0.37263939 2.1060002 -2.6749734e+38
0.30740198 -0.37456545 2.1170001 -2.6217e+38
0.31451321 -0.37613723 2.1260002 -2.6350444e+38
0.32317933 -0.37947768 2.1450002 -2.5685313e+38
0 0 0 -1.7014118e+38
0 0 0 -1.7014118e+38
0 0 0 -1.7014118e+38
0 0 0 -1.7014118e+38
0 0 0 -1.7014118e+38
0 0 0 -1.7014118e+38
0 0 0 -1.7014118e+38
0 0 0 -1.7014118e+38
0 0 0 -1.7014118e+38
-0.022753356 -0.37588564 2.089 -2.7287704e+38
-0.016951354 -0.37426776 2.0800002 -2.5017052e+38
-0.011214877 -0.37318924 2.0740001 -2.5149454e+38
-0.0055299229 -0.37336981 2.075 -2.4881004e+38
0.00016038152 -0.37319008 2.0740001 -2.474756e+38
0.0058480203 -0.37318987 2.0740001 -2.474756e+38
0.011535639 -0.37318921 2.0740001 -2.4881004e+38
0.017239824 -0.37354794 2.0760002 -2.4881004e+38
0.022932826 -0.37354639 2.0760002 -2.4881521e+38
0.028611951 -0.37336442 2.075 -2.5014965e+38
0.034285497 -0.37318206 2.0740001 -2.5014965e+38
0.040030528 -0.37371898 2.0770001 -2.5148409e+38
0.045791868 -0.37425542 2.0800002 -2.5014961e+38
0.051544741 -0.37461147 2.082 -2.4881521e+38
0.057308398 -0.37496713 2.0840001 -2.4614116e+38
0.063113071 -0.37550229 2.0870001 -2.4881004e+38
0.069032907 -0.37657669 2.0930002 -2.474756e+38
0.074985407 -0.37765065 2.0990002 -2.5014448e+38
0.08112441 -0.37944382 2.1090002 -2.5147892e+38
0.087235525 -0.3808766 2.1170001 -2.4480672e+38
0.093434155 -0.38248885 2.1260002 -2.4614116e+38
0.099588424 -0.38374078 2.1330001 -2.4081901e+38
0.1060773 -0.38607171 2.1460001 -2.4215345e+38
0.11237621 -0.38750252 2.154 -2.4081901e+38
0.11915788 -0.39037204 2.1700001 -2.3817098e+38
0 0 0 -1.7014118e+38
0 0 0 -1.7014118e+38
0 0 0 -1.7014118e+38
0.16940603 -0.39658058 2.2050002 -2.9289347e+38
0.17258003 -0.39009309 2.1690001 -2.4083986e+38
0.17720242 -0.38720253 2.1530001 -2.3816056e+38
0.1820768 -0.38503113 2.141 -2.4081901e+38
0.1871482 -0.38339901 2.1320002 -2.4213784e+38
0.19189815 -0.38122708 2.1200001 -2.4347228e+38
0.1965818 -0.37905493 2.108 -2.4347228e+38
0.20148714 -0.37742206 2.0990002 -2.4081901e+38
0.20663869 -0.37632832 2.0930002 -2.4081901e+38
0.21185826 -0.37541413 2.0880001 -2.4615677e+38
0.21684137 -0.37414008 2.0810001 -2.4482233e+38
0.22146472 -0.37232643 2.0710001 -2.4215345e+38
0.22647135 -0.3712317 2.0650001 -2.5014448e+38
0.23144448 -0.37013671 2.059 -2.4881004e+38
0.23695979 -0.36994031 2.0580001 -2.4348789e+38
0.24246886 -0.36974359 2.0570002 -2.4348789e+38
0.24773058 -0.36918712 2.0540001 -2.4348789e+38
0.25322184 -0.36898983 2.0530002 -2.4749122e+38
0.25883293 -0.36897194 2.0530002 -2.4882564e+38
0.2649585 -0.36967266 2.0570002 -2.5949073e+38
0.27176285 -0.37127149 2.066 -2.7416958e+38
0.27901846 -0.373409 2.0780001 -2.7016626e+38
0.28592777 -0.37500694 2.0870001 -2.6616294e+38
0.29330471 -0.3771435 2.0990002 -2.7416958e+38
0.30046138 -0.37892014 2.1090002 -2.6749734e+38
0.30781707 -0.380876 2.1200001 -2.6749734e+38
0.31508404 -0.38265178 2.1300001 -2.6084073e+38
0.32391134 -0.3862235 2.1500001 -2.5817714e+38
0 0 0 -1.7014118e+38
0 0 0 -1.7014118e+38
0 0 0 -1.7014118e+38
0 0 0 -1.7014118e+38
0 0 0 -1.7014118e+38
0 0 0 -1.7014118e+38
0 0 0 -1.7014118e+38
-0.022947619 -0.3848725 2.1070001 -2.822335e+38
-0.01702337 -0.38158605 2.089 -2.5684272e+38
-0.011241035 -0.37976053 2.079 -2.5415297e+38
-0.0055294898 -0.37903053 2.075 -2.541478e+38
0.00016029166 -0.37866542 2.0730002 -2.5014448e+38
0.005847563 -0.37884787 2.0740001 -2.5014448e+38
0.011545858 -0.3792125 2.0760002 -2.5014448e+38
0.017255081 -0.37957665 2.0780001 -2.4881004e+38
0.022953123 -0.37957507 2.0780001 -2.5014448e+38
0.028637294 -0.37939045 2.0770001 -2.4481189e+38
0.03431588 -0.37920532 2.0760002 -2.4481189e+38
0.040085215 -0.379933 2.0800002 -2.4614633e+38
0.045898367 -0.38084295 2.085 -2.4881521e+38
0.051664501 -0.38120446 2.0870001 -2.5014965e+38
0.057386432 -0.38120019 2.0870001 -2.5014965e+38
0.06316863 -0.38156074 2.089 -2.4614116e+38
0.069093503 -0.38265154 2.095 -2.4881004e+38
0.075051032 -0.38374177 2.1010001 -2.4614116e+38
0.081156582 -0.38537952 2.1100001 -2.4881004e+38
0.087269992 -0.38683414 2.118 -2.4614116e+38
0.093470886 -0.38847086 2.1270001 -2.4614116e+38
0.099767491 -0.39028975 2.1370001 -2.4081901e+38
0.10606913 -0.39192548 2.1460001 -2.3681569e+38
0.11252408 -0.39392596 2.1570001 -2.4348789e+38
0.11936837 -0.39702165 2.174 -2.3683654e+38
0 0 0 -1.7014118e+38
0 0 0 -1.7014118e+38
0.17304447 -0.39710417 2.1750002 -2.6485979e+38
0.17784756 -0.39453495 2.161 -2.355021e+38
0.18274353 -0.39233065 2.1490002 -2.3682612e+38
0.18766093 -0.39030865 2.138 -2.4348789e+38
0.19242705 -0.38810393 2.1260002 -2.4213784e+38
0.19722004 -0.38608143 2.115 -2.474756e+38
0.20224021 -0.38460636 2.1070001 -2.4614116e+38
0.20721592 -0.38313109 2.0990002 -2.4881004e+38
0.21204576 -0.38147298 2.0900002 -2.4881004e+38
0.21672148 -0.37963215 2.0800002 -2.4480672e+38
0.22155565 -0.3781561 2.072 -2.474756e+38
0.22645508 -0.37686241 2.0650001 -2.474756e+38
0.23165272 -0.37611592 2.0610001 -2.5014448e+38
0.23705803 -0.37573415 2.059 -2.4614116e+38
0.24245168 -0.37535208 2.0570002 -2.4215345e+38
0.24783368 -0.37496972 2.0550001 -2.4348789e+38
0.25320405 -0.37458718 2.0530002 -2.4215345e+38
0.25881484 -0.37456915 2.0530002 -2.4482231e+38
0.26481125 -0.37509811 2.056 -2.6083556e+38
0.27148098 -0.37653899 2.0640001 -2.7416954e+38
0.27859649 -0.37852663 2.075 -2.6483888e+38
0.28549722 -0.38014898 2.0840001 -2.6350448e+38
0.2927258 -0.38213569 2.095 -2.6483892e+38
0.30015615 -0.38430434 2.1070001 -2.7550402e+38
0.30837712 -0.38738433 2.1240001 -2.7017664e+38
0.31609842 -0.38973427 2.1370001 -2.5950112e+38
0.3247937 -0.3931779 2.1560001 -2.5418425e+38
0 0 0 -1.7014118e+38
0 0 0 -1.7014118e+38
0 0 0 -1.7014118e+38
0 0 0 -1.7014118e+38
0 0 0 -1.7014118e+38
0 0 0 -1.7014118e+38
0 0 0 -1.7014118e+38
-0.023163615 -0.3943271 2.1270001 -2.8623686e+38
-0.017160552 -0.39043555 2.1060002 -2.7419043e+38
-0.011288807 -0.38709953 2.0880001 -2.5282896e+38
-0.0055423765 -0.38561708 2.0800002 -2.4881004e+38
0.00016058827 -0.38506112 2.0770001 -2.474756e+38
0.005858378 -0.38524628 2.0780001 -2.5014448e+38
0.011572754 -0.38580176 2.0810001 -2.5281336e+38
0.017286934 -0.385986 2.082 -2.4881004e+38
0.023017582 -0.38635519 2.0840001 -2.5281853e+38
0.02871776 -0.38616779 2.0830002 -2.4748077e+38
0.034412347 -0.38597983 2.082 -2.5014965e+38
0.040159144 -0.38634771 2.0840001 -2.5281853e+38
0.045938782 -0.38690045 2.0870001 -2.5281853e+38
0.051734705 -0.38745275 2.0900002 -2.5014965e+38
0.057519402 -0.38781923 2.092 -2.4748077e+38
0.063284636 -0.38799986 2.0930002 -2.4881521e+38
0.069220014 -0.38910693 2.0990002 -2.4881521e+38
0.075152315 -0.39002812 2.1040001 -2.4614116e+38
0.081265628 -0.39169034 2.1130002 -2.4347745e+38
0.087427981 -0.39335203 2.1220002 -2.4480672e+38
0.093727261 -0.39538398 2.1330001 -2.474756e+38
0.10003983 -0.39723012 2.1430001 -2.4081901e+38
0.1062586 -0.39851958 2.1500001 -2.4215345e+38
0.11267186 -0.40036458 2.1600001 -2.4216388e+38
0.11957878 -0.40369195 2.1780002 -2.3817098e+38
0 0 0 -1.7014118e+38
0 0 0 -1.7014118e+38
0.17366785 -0.40451741 2.1830001 -2.8354196e+38
0.17824568 -0.40135399 2.1660001 -2.3416766e+38
0.18315497 -0.39911684 2.154 -2.3682612e+38
0.18817352 -0.39725 2.1440001 -2.4081901e+38
0.19295575 -0.39501238 2.1320002 -2.4213784e+38
0.19795135 -0.39333031 2.1230001 -2.4347228e+38
0.20280114 -0.39146274 2.1130002 -2.4614116e+38
0.20779292 -0.38996542 2.105 -2.474756e+38
0.21243599 -0.38791215 2.0940001 -2.4614116e+38
0.21712238 -0.38604394 2.0840001 -2.4614116e+38
0.22164649 -0.38399029 2.0730002 -2.474756e+38
0.22654833 -0.38267729 2.066 -2.474756e+38
0.23152365 -0.38154936 2.0600002 -2.474756e+38
0.23692589 -0.38116199 2.0580001 -2.4614116e+38
0.24231647 -0.38077435 2.056 -2.4081901e+38
0.24781609 -0.38057166 2.0550001 -2.4482233e+38
0.25330946 -0.38036865 2.0540001 -2.4348787e+38
0.25904873 -0.38053566 2.0550001 -2.4081899e+38
0.26466393 -0.38051721 2.0550001 -2.6349402e+38
0.27119902 -0.38179454 2.062 -2.7016622e+38
0.27777165 -0.38307148 2.069 -2.6350444e+38
0.28492963 -0.38508859 2.0800002 -2.6617336e+38
0.29214692 -0.38710517 2.0910001 -2.6750782e+38
0.30027816 -0.39023197 2.108 -2.7951777e+38
0.30879179 -0.39372841 2.1270001 -2.7818333e+38
0.31711254 -0.39685404 2.1440001 -2.6483892e+38
0 0 0 -1.7014118e+38
0 0 0 -1.7014118e+38
0 0 0 -1.7014118e+38
0 0 0 -1.7014118e+38
0 0 0 -1.7014118e+38
0 0 0 -1.7014118e+38
0 0 0 -1.7014118e+38
0 0 0 -1.7014118e+38
-0.023303337 -0.4025729 2.1400001 -2.6755482e+38
-0.017289553 -0.39918843 2.1220002 -2.915486e+38
-0.011336565 -0.39448655 2.0970001 -2.648545e+38
-0.0055552577 -0.39222977 2.085 -2.5415293e+38
0.00016088474 -0.3914775 2.0810001 -2.4614633e+38
0.0058663697 -0.39147729 2.0810001 -2.5014965e+38
0.011588516 -0.39204094 2.0840001 -2.4881004e+38
0.01731877 -0.39241603 2.0860002 -2.5281336e+38
0.023070974 -0.39297876 2.089 -2.4881004e+38
0.028811976 -0.39316481 2.0900002 -2.4748077e+38
0.034508776 -0.39278603 2.0880001 -2.5014965e+38
0.040233035 -0.39278311 2.0880001 -2.5014965e+38
0.04600117 -0.3931559 2.0900002 -2.5014965e+38
0.051829614 -0.39390445 2.0940001 -2.4481189e+38
0.057624824 -0.39427632 2.0960002 -2.4881521e+38
0.06337034 -0.39427155 2.0960002 -2.4881521e+38
0.069247521 -0.39501873 2.1000001 -2.4748077e+38
0.075324982 -0.39670593 2.1090002 -2.474756e+38
0.081451505 -0.39839259 2.118 -2.4614633e+38
0.087668292 -0.40026686 2.128 -2.4081901e+38
0.093983538 -0.40232879 2.1390002 -2.4215345e+38
0.10026539 -0.40401393 2.148 -2.4482233e+38
0.10659622 -0.4056986 2.1570001 -2.4082944e+38
0.11281955 -0.40681851 2.1630001 -2.4216388e+38
0 0 0 -1.7014118e+38
0 0 0 -1.7014118e+38
0 0 0 -1.7014118e+38
0.17484789 -0.41328943 2.1980002 -2.8488683e+38
0.17889045 -0.40876326 2.174 -2.3684697e+38
0.18373629 -0.40630522 2.161 -2.3816056e+38
0.18859816 -0.40403497 2.1490002 -2.4215345e+38
0.19339374 -0.40176448 2.1370001 -2.4480672e+38
0.1983095 -0.39986977 2.1270001 -2.4213784e+38
0.20326585 -0.39816275 2.118 -2.4347228e+38
0.20817235 -0.39645556 2.1090002 -2.4614116e+38
0.21272463 -0.39418417 2.0970001 -2.4748077e+38
0.21731476 -0.39210057 2.0860002 -2.4614633e+38
0.22195099 -0.39020479 2.0760002 -2.4881521e+38
0.22664145 -0.38849664 2.0670002 -2.4614116e+38
0.23161918 -0.38735223 2.0610001 -2.4614116e+38
0.23690873 -0.38677138 2.0580001 -2.4614116e+38
0.24241692 -0.3865661 2.0570002 -2.4348789e+38
0.24803948 -0.38654843 2.0570002 -2.4615677e+38
0.25341469 -0.38615462 2.0550001 -2.4615675e+38
0.25915641 -0.38632426 2.056 -2.4749119e+38
0.26477402 -0.38630563 2.056 -2.5683228e+38
0.27131155 -0.387602 2.0630002 -2.7016626e+38
0.27775225 -0.38870993 2.069 -2.6350448e+38
0.28504685 -0.39094478 2.0810001 -2.7017668e+38
0.2924062 -0.39317903 2.0930002 -2.6750782e+38
0.30082732 -0.39672765 2.112 -2.8485553e+38
0.30978695 -0.40083921 2.1340001 -2.7818333e+38
0.31812632 -0.40401092 2.151 -2.5817714e+38
0 0 0 -1.7014118e+38
0 0 0 -1.7014118e+38
0 0 0 -1.7014118e+38
0 0 0 -1.7014118e+38
0 0 0 -1.7014118e+38
0 0 0 -1.7014118e+38
0 0 0 -1.7014118e+38
-0.023475688 -0.41146091 2.1560001 -2.8757143e+38
-0.017385932 -0.40726396 2.1340001 -2.8089397e+38
-0.011373496 -0.40153974 2.1040001 -2.8353667e+38
-0.0055654692 -0.39867768 2.089 -2.5683224e+38
0.00016110377 -0.39772373 2.0840001 -2.4482231e+38
0.0058715376 -0.39753264 2.0830002 -2.4748077e+38
0.011582028 -0.39753196 2.0830002 -2.4748077e+38
0.017309081 -0.39791244 2.085 -2.4881004e+38
0.023035999 -0.39810172 2.0860002 -2.4614633e+38
0.028782101 -0.39848128 2.0880001 -2.4481189e+38
0.034489498 -0.39828795 2.0870001 -2.4748077e+38
0.040210553 -0.39828491 2.0870001 -2.4614633e+38
0.045953479 -0.39847231 2.0880001 -2.4748077e+38
0.051800732 -0.39942262 2.0930002 -2.4480672e+38
0.057620239 -0.39999077 2.0960002 -2.4614633e+38
0.063395523 -0.40017673 2.0970001 -2.4480672e+38
0.069274992 -0.40093476 2.1010001 -2.474756e+38
0.075390428 -0.40283728 2.1110001 -2.4881004e+38
0.081714228 -0.40550259 2.125 -2.4482233e+38
0.088073298 -0.40797654 2.138 -2.4215345e+38
0.094415456 -0.41006833 2.1490002 -2.4215345e+38
0.10067755 -0.41158715 2.1570001 -2.4482233e+38
0.10698316 -0.41310543 2.1650002 -2.4482233e+38
0.11328007 -0.41443238 2.1720002 -2.4216388e+38
0 0 0 -1.7014118e+38
0 0 0 -1.7014118e+38
0 0 0 -1.7014118e+38
0.17937046 -0.41583353 2.1800001 -2.4218473e+38
0.18397737 -0.41276765 2.164 -2.4082944e+38
0.18884714 -0.41046464 2.1520002 -2.4081901e+38
0.19392209 -0.40873346 2.1430001 -2.3681569e+38
0.19876072 -0.40662065 2.1320002 -2.4081901e+38
0.20344256 -0.40431684 2.1200001 -2.4482233e+38
0.20825548 -0.40239424 2.1100001 -2.4482233e+38
0.21291167 -0.40028074 2.0990002 -2.4482231e+38
0.21792366 -0.39892977 2.092 -2.4748077e+38
0.22236221 -0.39662522 2.0800002 -2.4614633e+38
0.22695373 -0.39470181 2.0700002 -2.4881004e+38
0.23171461 -0.39315951 2.062 -2.5014448e+38
0.2370066 -0.39257035 2.059 -2.4347228e+38
0.24251719 -0.39236224 2.0580001 -2.4749122e+38
0.24802162 -0.3921538 2.0570002 -2.4348789e+38
0.2535198 -0.39194503 2.056 -2.4348787e+38
0.25939 -0.39230788 2.0580001 -2.4748077e+38
0.26527035 -0.39267042 2.0600002 -2.6082518e+38
0.27155536 -0.39360437 2.0650001 -2.6616294e+38
0.27786699 -0.39453802 2.0700002 -2.6617336e+38
0.28489 -0.39642417 2.0800002 -2.688422e+38
0.29252559 -0.3990722 2.0940001 -2.7284557e+38
0.30151874 -0.40343475 2.1170001 -2.8086263e+38
0.31078181 -0.40798715 2.141 -2.7952819e+38
0 0 0 -1.7014118e+38
0 0 0 -1.7014118e+38
0 0 0 -1.7014118e+38
0 0 0 -1.7014118e+38
0 0 0 -1.7014118e+38
0 0 0 -1.7014118e+38
0 0 0 -1.7014118e+38
0 0 0 -1.7014118e+38
-0.023604449 -0.41966072 2.1680002 -2.4220045e+38
-0.017474143 -0.41521028 2.1450002 -2.795491e+38
-0.011421225 -0.40901709 2.1130002 -2.8752437e+38
-0.0055783414 -0.40533996 2.0940001 -2.6483888e+38
0.00016124539 -0.40379161 2.0860002 -2.5016004e+38
0.0058682449 -0.40301704 2.082 -2.4614633e+38
0.011569974 -0.40282276 2.0810001 -2.4748077e+38
0.017274482 -0.4028216 2.0810001 -2.4614116e+38
0.023001017 -0.40320712 2.0830002 -2.474756e+38
0.028752217 -0.40378574 2.0860002 -2.4480672e+38
0.034486718 -0.40397677 2.0870001 -2.4615677e+38
0.040226582 -0.40416726 2.0880001 -2.4215345e+38
0.045949783 -0.40416381 2.0880001 -2.4749122e+38
0.05177182 -0.40493414 2.092 -2.4614116e+38
0.057533141 -0.40512329 2.0930002 -2.4215345e+38
0.063329972 -0.40550554 2.095 -2.4348789e+38
0.069203503 -0.4062745 2.0990002 -2.4215345e+38
0.075455815 -0.40897843 2.1130002 -2.4081901e+38
0.081938408 -0.41245607 2.131 -2.4482233e+38
0.088478193 -0.41573954 2.148 -2.5147892e+38
0.09475939 -0.41747412 2.1570001 -2.4881004e+38
0.10099626 -0.41882113 2.164 -2.4215345e+38
0.10717232 -0.41978055 2.1690001 -2.4215345e+38
0.11353186 -0.42132002 2.177 -2.3682612e+38
0 0 0 -1.7014118e+38
0 0 0 -1.7014118e+38
0 0 0 -1.7014118e+38
0.18017939 -0.42370921 2.1900001 -2.742113e+38
0.18447334 -0.41982573 2.1700001 -2.4216388e+38
0.18900819 -0.41671601 2.154 -2.3682612e+38
0.1940883 -0.41496024 2.1450002 -2.4081901e+38
0.19902527 -0.41301069 2.135 -2.4215345e+38
0.20381102 -0.41086757 2.1240001 -2.4615677e+38
0.20843719 -0.40853068 2.112 -2.4615677e+38
0.21309856 -0.40638712 2.1010001 -2.4482231e+38
0.21801159 -0.40482363 2.0930002 -2.4615677e+38
0.22266638 -0.40287298 2.0830002 -2.4615675e+38
0.22748509 -0.40130901 2.075 -2.4881004e+38
0.23225939 -0.39974481 2.0670002 -2.4215345e+38
0.23744966 -0.39895397 2.0630002 -2.4215345e+38
0.24273516 -0.39835617 2.0600002 -2.4215345e+38
0.24812415 -0.39795151 2.0580001 -2.4482233e+38
0.25387141 -0.39812669 2.059 -2.4881004e+38
0.25962341 -0.39830148 2.0600002 -2.4881521e+38
0.26576644 -0.39905599 2.0640001 -2.5682185e+38
0.27179909 -0.39961678 2.0670002 -2.6215962e+38
0.27838427 -0.40095049 2.0740001 -2.648285e+38
0.28555474 -0.40305707 2.085 -2.7151108e+38
0.29390204 -0.40670955 2.1040001 -2.7951777e+38
0.30292192 -0.41113451 2.1270001 -2.8486596e+38
0.31192154 -0.41536558 2.1490002 -2.7020269e+38
0 0 0 -1.7014118e+38
0 0 0 -1.7014118e+38
0 0 0 -1.7014118e+38
0 0 0 -1.7014118e+38
0 0 0 -1.7014118e+38
0 0 0 -1.7014118e+38
0 0 0 -1.7014118e+38
0 0 0 -1.7014118e+38
-0.023635192 -0.42615804 2.171 -2.3285419e+38
-0.017562328 -0.42321527 2.1560001 -2.7154759e+38
-0.011485155 -0.41713127 2.125 -2.9152773e+38
-0.0055965339 -0.41242084 2.1010001 -2.7551441e+38
0.00016146417 -0.41006547 2.089 -2.5282892e+38
0.0058734058 -0.40908378 2.0840001 -2.5415297e+38
0.011569034 -0.40849414 2.0810001 -2.4881521e+38
0.017256478 -0.4081004 2.079 -2.4614116e+38
0.022954984 -0.40809873 2.079 -2.4348789e+38
0.028694754 -0.40868554 2.082 -2.4482233e+38
0.03441783 -0.40887928 2.0830002 -2.4348789e+38
0.040165529 -0.4092688 2.085 -2.4348789e+38
0.045880057 -0.40926531 2.085 -2.4348789e+38
0.051693395 -0.41004649 2.089 -2.4348789e+38
0.057501003 -0.41063091 2.092 -2.4081901e+38
0.063355096 -0.4114112 2.0960002 -2.4482233e+38
0.069428697 -0.4133687 2.1060002 -2.4215345e+38
0.075806819 -0.41669956 2.1230001 -2.4615677e+38
0.082393192 -0.42061868 2.1430001 -2.4882566e+38
0.088841781 -0.42335966 2.1570001 -2.5282898e+38
0.095059291 -0.42472613 2.164 -2.5014448e+38
0.10122152 -0.42569962 2.1690001 -2.3948457e+38
0.10721316 -0.42588753 2.1700001 -2.3948457e+38
0.11367925 -0.42784125 2.1800001 -2.3816056e+38
0 0 0 -1.7014118e+38
0 0 0 -1.7014118e+38
0 0 0 -1.7014118e+38
0.18098815 -0.4316383 2.2 -2.742113e+38
0.18454413 -0.42593443 2.171 -2.4884651e+38
0.18925689 -0.4231734 2.1570001 -2.3816056e+38
0.19443534 -0.42158917 2.1490002 -2.4215345e+38
0.19966261 -0.42020085 2.1420002 -2.4081901e+38
0.20456313 -0.41822371 2.1320002 -2.4615677e+38
0.20891486 -0.41526553 2.1170001 -2.4348789e+38
0.21338674 -0.41269952 2.1040001 -2.4215345e+38
0.2182035 -0.41091791 2.095 -2.4348789e+38
0.22297043 -0.40913615 2.0860002 -2.4615677e+38
0.22801629 -0.40794247 2.0800002 -2.4882564e+38
0.23291634 -0.40655249 2.0730002 -2.4615675e+38
0.23800758 -0.40555441 2.0680001 -2.4614633e+38
0.24307084 -0.40455616 2.0630002 -2.4748077e+38
0.2482266 -0.4037537 2.059 -2.4481189e+38
0.25385296 -0.40373534 2.059 -2.4748077e+38
0.25960466 -0.40391281 2.0600002 -2.5415297e+38
0.26587608 -0.40487412 2.0650001 -2.5548741e+38
0.27191111 -0.40544298 2.0680001 -2.6349402e+38
0.27876714 -0.40718779 2.0770001 -2.661629e+38
0.28594539 -0.40932411 2.0880001 -2.7551441e+38
0.29457977 -0.41342032 2.1090002 -2.8753484e+38
0.30290079 -0.4169277 2.1270001 -2.8219707e+38
0.3117547 -0.42102244 2.148 -2.7420088e+38
0 0 0 -1.7014118e+38
0 0 0 -1.7014118e+38
0 0 0 -1.7014118e+38
0 0 0 -1.7014118e+38
0 0 0 -1.7014118e+38
0 0 0 -1.7014118e+38
0 0 0 -1.7014118e+38
0 0 0 -1.7014118e+38
-0.023622377 -0.43187454 2.1700001 -2.3551786e+38
-0.017593473 -0.42988601 2.1600001 -2.5685846e+38
-0.011549069 -0.42530966 2.1370001 -2.9286217e+38
-0.0056253751 -0.42033482 2.112 -2.8352105e+38
0.00016191468 -0.41695172 2.095 -2.6215958e+38
0.0058785616 -0.4151603 2.0860002 -2.5014965e+38
0.011573647 -0.41436341 2.082 -2.4748077e+38
0.017255068 -0.41376519 2.079 -2.4348789e+38
0.02295311 -0.41376352 2.079 -2.4348789e+38
0.028678633 -0.41415948 2.0810001 -2.4482233e+38
0.034431543 -0.41475394 2.0840001 -2.4215345e+38
0.040200781 -0.41534796 2.0870001 -2.4215345e+38
0.045942325 -0.41554344 2.0880001 -2.4348789e+38
0.051763419 -0.41633549 2.092 -2.4215345e+38
0.057606272 -0.41712713 2.0960002 -2.4348789e+38
0.063591748 -0.41871426 2.1040001 -2.4348789e+38
0.069818631 -0.42149493 2.118 -2.4615677e+38
0.076443352 -0.4260661 2.141 -2.4882566e+38
0.082963191 -0.42944261 2.158 -2.4615677e+38
0.089040533 -0.43023169 2.1620002 -2.4882566e+38
0.095051624 -0.43062216 2.164 -2.4482233e+38
0.10107338 -0.43101224 2.1660001 -2.4215345e+38
0.10715515 -0.43160081 2.1690001 -2.4081386e+38
0.11372229 -0.43397975 2.181 -2.4215873e+38
0 0 0 -1.7014118e+38
0 0 0 -1.7014118e+38
0.18179666 -0.43962073 2.21 -2.6487022e+38
0.18503979 -0.43304205 2.177 -2.4751207e+38
0.18968093 -0.43004385 2.1620002 -2.4082944e+38
0.19478223 -0.42823878 2.1530001 -2.3682612e+38
0.2001133 -0.42703015 2.1470001 -2.4348789e+38
0.20512311 -0.4252246 2.138 -2.4749122e+38
0.20929365 -0.42182764 2.1210001 -2.4882566e+38
0.2135734 -0.4188284 2.1060002 -2.4348789e+38
0.21829118 -0.41682333 2.0960002 -2.4615677e+38
0.22316739 -0.41521573 2.0880001 -2.4482231e+38
0.22832806 -0.41420448 2.0830002 -2.4882564e+38
0.23323603 -0.41279531 2.0760002 -2.4615675e+38
0.23845024 -0.4119823 2.072 -2.4881521e+38
0.24364194 -0.41116911 2.0680001 -2.4748077e+38
0.24893165 -0.41055444 2.0650001 -2.4614633e+38
0.25445083 -0.41033718 2.0640001 -2.4881521e+38
0.25996381 -0.41011953 2.0630002 -2.5148409e+38
0.26624307 -0.4110944 2.0680001 -2.5415293e+38
0.27241746 -0.41187003 2.072 -2.6215958e+38
0.27928403 -0.41363919 2.0810001 -2.6750776e+38
0.28674671 -0.4162029 2.0940001 -2.7285599e+38
0.29511759 -0.41995856 2.1130002 -2.9153818e+38
0.3033067 -0.42331612 2.1300001 -2.8087308e+38
0.31115243 -0.42607677 2.1440001 -2.5685315e+38
0 0 0 -1.7014118e+38
0 0 0 -1.7014118e+38
0 0 0 -1.7014118e+38
0 0 0 -1.7014118e+38
0 0 0 -1.7014118e+38
0 0 0 -1.7014118e+38
0 0 0 -1.7014118e+38
-0.023566011 -0.43677735 2.1650002 -2.4485894e+38
-0.017551307 -0.43476161 2.1550002 -2.4083471e+38
-0.011558928 -0.43153486 2.1390002 -2.8485555e+38
-0.0056462195 -0.42770237 2.1200001 -2.8617955e+38
0.00016236503 -0.4238694 2.1010001 -2.661629e+38
0.0058921678 -0.42185172 2.0910001 -2.5415293e+38
0.011589371 -0.4206405 2.085 -2.5148405e+38
0.017278546 -0.42003405 2.082 -2.4614633e+38
0.022951223 -0.41942719 2.079 -2.4615677e+38
0.028676275 -0.41982853 2.0810001 -2.4882566e+38
0.034412198 -0.42022943 2.0830002 -2.4348789e+38
0.040197484 -0.42103335 2.0870001 -2.4348789e+38
0.045982566 -0.42163503 2.0900002 -2.4081901e+38
0.051882893 -0.42304316 2.0970001 -2.4482233e+38
0.05790386 -0.42505604 2.1070001 -2.4615677e+38
0.064039879 -0.42747188 2.1190002 -2.4482233e+38
0.070472173 -0.43129921 2.138 -2.501601e+38
0.076901257 -0.43452087 2.154 -2.4750164e+38
0.083033323 -0.43572468 2.1600001 -2.4349832e+38
0.088827394 -0.43511251 2.1570001 -2.3548652e+38
0.094736472 -0.435105 2.1570001 -2.3814498e+38
0.10073858 -0.43550053 2.1590002 -2.314832e+38
0.10704769 -0.43710577 2.1670001 -2.3148324e+38
0.11376526 -0.44012251 2.1820002 -2.3416255e+38
0 0 0 -1.7014118e+38
0 0 0 -1.7014118e+38
0.18153566 -0.44503513 2.207 -2.4618809e+38
0.18519534 -0.43937472 2.1790001 -2.4617762e+38
0.18992937 -0.43653715 2.1650002 -2.3816056e+38
0.19512901 -0.43490914 2.1570001 -2.4216388e+38
0.20028424 -0.4332808 2.1490002 -2.4348789e+38
0.20520329 -0.43124899 2.1390002 -2.4882566e+38
0.20937631 -0.42780572 2.1220002 -2.4882566e+38
0.21375991 -0.42496705 2.108 -2.4615675e+38
0.21837874 -0.42273304 2.0970001 -2.501601e+38
0.22325738 -0.42110354 2.089 -2.4615675e+38
0.22853008 -0.42028019 2.085 -2.5016008e+38
0.2334432 -0.41885176 2.0780001 -2.4881521e+38
0.2387777 -0.41822937 2.075 -2.5148409e+38
0.24397729 -0.41740522 2.0710001 -2.4748077e+38
0.24927489 -0.41678226 2.0680001 -2.5014965e+38
0.25455537 -0.41615903 2.0650001 -2.4748073e+38
0.26044884 -0.41654316 2.0670002 -2.5415293e+38
0.26660994 -0.41732997 2.0710001 -2.5548737e+38
0.27292368 -0.41831794 2.0760002 -2.5816143e+38
0.27966651 -0.41990989 2.0840001 -2.5950112e+38
0.28700006 -0.42230743 2.0960002 -2.6884226e+38
0.29495695 -0.42551023 2.112 -2.9420706e+38
0.30257329 -0.4281081 2.125 -2.8753486e+38
0.31025994 -0.43070543 2.138 -2.7152684e+38
0.31875587 -0.43430948 2.1560001 -2.3950027e+38
0 0 0 -1.7014118e+38
0 0 0 -1.7014118e+38
0 0 0 -1.7014118e+38
0 0 0 -1.7014118e+38
0 0 0 -1.7014118e+38
0 0 0 -1.7014118e+38
-0.023531413 -0.44206071 2.1620002 -2.3417297e+38
-0.017533567 -0.44022214 2.1530001 -2.4617762e+38
-0.011563375 -0.43756527 2.1400001 -2.6217004e+38
-0.0056643938 -0.43490788 2.1270001 -2.8084174e+38
0.00016296981 -0.43122762 2.1090002 -2.7550915e+38
0.0059114033 -0.42897817 2.098 -2.6349919e+38
0.011610645 -0.42713723 2.089 -2.5815625e+38
0.017293716 -0.42611369 2.0840001 -2.5415297e+38
0.022971405 -0.4254986 2.0810001 -2.474756e+38
0.028687688 -0.42570093 2.082 -2.4348789e+38
0.034491953 -0.42692512 2.0880001 -2.4482233e+38
0.040328987 -0.42814887 2.0940001 -2.4482233e+38
0.046154767 -0.42896312 2.098 -2.4482233e+38
0.052076533 -0.4303903 2.105 -2.4482233e+38
0.058201369 -0.43304372 2.118 -2.4348789e+38
0.064487904 -0.43630999 2.1340001 -2.4615677e+38
0.070763022 -0.43896234 2.1470001 -2.501601e+38
0.076823555 -0.43997857 2.1520002 -2.4082429e+38
0.082719043 -0.43997204 2.1520002 -2.3415208e+38
0.088573061 -0.43976051 2.151 -2.3148324e+38
0.094509177 -0.4399575 2.1520002 -2.3281768e+38
0.1005904 -0.44076726 2.1560001 -2.3148324e+38
0.107039 -0.44300756 2.1670001 -2.301541e+38
0.11391244 -0.44667837 2.1850002 -2.4483294e+38
0 0 0 -1.7014118e+38
0 0 0 -1.7014118e+38
0.18267286 -0.45390633 2.2210002 -2.1015306e+38
0.18569072 -0.44653457 2.1850002 -2.3416251e+38
0.19061628 -0.44406748 2.1730001 -2.3549695e+38
0.19565655 -0.44200885 2.1630001 -2.3816056e+38
0.20054828 -0.43974558 2.1520002 -2.4615677e+38
0.20518744 -0.43707344 2.1390002 -2.4749122e+38
0.20945881 -0.43378806 2.1230001 -2.4482233e+38
0.21384494 -0.43091127 2.1090002 -2.4882564e+38
0.21867447 -0.42905581 2.1000001 -2.4749119e+38
0.22356099 -0.4274044 2.092 -2.4749119e+38
0.22873197 -0.42636576 2.0870001 -2.4482231e+38
0.23376262 -0.42512253 2.0810001 -2.4881521e+38
0.23910497 -0.42449182 2.0780001 -2.5014965e+38
0.24454808 -0.42406517 2.0760002 -2.5148409e+38
0.24997956 -0.42363816 2.0740001 -2.4748073e+38
0.25502965 -0.42259809 2.069 -2.5148405e+38
0.26068166 -0.42257905 2.069 -2.5148405e+38
0.26684788 -0.42337671 2.0730002 -2.5148405e+38
0.27329814 -0.4245823 2.079 -2.5682699e+38
0.27978048 -0.42578754 2.085 -2.6482846e+38
0.28697947 -0.42801341 2.0960002 -2.7151113e+38
0.29479626 -0.43105552 2.1110001 -2.8753486e+38
0.3024095 -0.4336887 2.1240001 -2.8353154e+38
0.3100929 -0.43632132 2.1370001 -2.7553017e+38
0.31888136 -0.44038257 2.1570001 -2.7553021e+38
0 0 0 -1.7014118e+38
0 0 0 -1.7014118e+38
0 0 0 -1.7014118e+38
0 0 0 -1.7014118e+38
0 0 0 -1.7014118e+38
0 0 0 -1.7014118e+38
0 0 0 -1.7014118e+38
-0.023562107 -0.44856966 2.1650002 -2.7286644e+38
-0.017532108 -0.44608504 2.1530001 -2.6084603e+38
-0.011562414 -0.44339275 2.1400001 -2.6349402e+38
-0.0056665861 -0.44090715 2.128 -2.6349402e+38
0.00016334259 -0.4380067 2.1140001 -2.7684359e+38
0.0059193638 -0.4353129 2.1010001 -2.6349919e+38
0.011631911 -0.43365464 2.0930002 -2.5415293e+38
0.017308876 -0.43220311 2.0860002 -2.5415293e+38
0.022991573 -0.43157986 2.0830002 -2.4881521e+38
0.028726637 -0.43199205 2.085 -2.4614633e+38
0.03455516 -0.43343976 2.092 -2.4480672e+38
0.040421933 -0.43488696 2.0990002 -2.474756e+38
0.046326928 -0.43633369 2.1060002 -2.4881004e+38
0.052294865 -0.43798706 2.1140001 -2.4881004e+38
0.058416374 -0.4404687 2.1260002 -2.4614116e+38
0.06460344 -0.44294974 2.138 -2.4881008e+38
0.070658311 -0.44418725 2.1440001 -2.4480161e+38
0.076531649 -0.44418111 2.1440001 -2.3547097e+38
0.08232788 -0.44376025 2.1420002 -2.3146765e+38
0.088277571 -0.44416755 2.1440001 -2.2881436e+38
0.094369672 -0.44519585 2.1490002 -2.2880919e+38
0.10062882 -0.44684511 2.1570001 -2.314885e+38
0.10717842 -0.44952968 2.1700001 -2.3282827e+38
0.11432017 -0.45428514 2.1930001 -1.9947768e+38
0 0 0 -1.7014118e+38
0 0 0 -1.7014118e+38
0.18249391 -0.45953906 2.2190001 -1.9281075e+38
0.18601599 -0.4533118 2.1890001 -2.2616122e+38
0.19103988 -0.45101902 2.1780002 -2.368263e+38
0.19591257 -0.4485189 2.1660001 -2.4349832e+38
0.20090538 -0.44643265 2.1560001 -2.4749119e+38
0.20517148 -0.44289678 2.1390002 -2.5548741e+38
0.20963992 -0.43998191 2.125 -2.4615675e+38
0.21413259 -0.43727386 2.112 -2.4482231e+38
0.21897003 -0.43539387 2.1030002 -2.4615677e+38
0.2238645 -0.43372062 2.095 -2.4881521e+38
0.22926252 -0.43308222 2.092 -2.4881521e+38
0.23441888 -0.43202955 2.0870001 -2.5014965e+38
0.23989235 -0.43159753 2.085 -2.5281853e+38
0.24488311 -0.43033731 2.079 -2.5014965e+38
0.25032252 -0.42990485 2.0770001 -2.4881521e+38
0.25513399 -0.42843714 2.0700002 -2.4881521e+38
0.26078844 -0.42841798 2.0700002 -2.5148409e+38
0.26669961 -0.42881244 2.072 -2.5415297e+38
0.27327824 -0.43024126 2.079 -2.5281849e+38
0.27976021 -0.43146273 2.085 -2.6082513e+38
0.28695875 -0.4337185 2.0960002 -2.7150066e+38
0.29477513 -0.43680134 2.1110001 -2.8352109e+38
0.30267265 -0.43988359 2.1260002 -2.8752441e+38
0.31065133 -0.44296524 2.141 -2.8352638e+38
0.31974587 -0.44749463 2.1630001 -2.8086797e+38
0 0 0 -1.7014118e+38
0 0 0 -1.7014118e+38
0 0 0 -1.7014118e+38
0 0 0 -1.7014118e+38
0 0 0 -1.7014118e+38
0 0 0 -1.7014118e+38
0 0 0 -1.7014118e+38
-0.023625432 -0.45572352 2.171 -2.7287686e+38
-0.017563215 -0.45278645 2.1570001 -2.7285599e+38
-0.011583058 -0.45005879 2.1440001 -2.6082513e+38
-0.0056794253 -0.44775039 2.1330001 -2.5548737e+38
0.00016356073 -0.44439203 2.1170001 -2.7416954e+38
0.0059301383 -0.44187275 2.105 -2.6482846e+38
0.011647611 -0.4399828 2.0960002 -2.5415293e+38
0.017348915 -0.438932 2.0910001 -2.5415293e+38
0.023044836 -0.43830055 2.0880001 -2.4881521e+38
0.028793124 -0.4387182 2.0900002 -2.4748077e+38
0.034618348 -0.43997505 2.0960002 -2.4881521e+38
0.040534098 -0.44186109 2.105 -2.4881004e+38
0.046477042 -0.44353676 2.1130002 -2.5147892e+38
0.05251313 -0.44563165 2.1230001 -2.474756e+38
0.05852142 -0.44709641 2.1300001 -2.4614116e+38
0.06450744 -0.44814077 2.135 -2.3946384e+38
0.070388824 -0.44834507 2.1360002 -2.3279164e+38
0.076204076 -0.44812906 2.135 -2.2879876e+38
0.082090482 -0.44833243 2.1360002 -2.3146765e+38
0.088187955 -0.44958478 2.1420002 -2.3148324e+38
0.094537541 -0.45188594 2.1530001 -2.3415738e+38
0.10118034 -0.45523608 2.1690001 -2.3949518e+38
0.10795981 -0.4587954 2.1860001 -2.1815985e+38
0 0 0 -1.7014118e+38
0 0 0 -1.7014118e+38
0 0 0 -1.7014118e+38
0 0 0 -1.7014118e+38
0.18625617 -0.45989993 2.1920002 -2.1148765e+38
0.19137563 -0.45778689 2.1820002 -2.4350895e+38
0.1964398 -0.45567358 2.1720002 -2.4216388e+38
0.20135552 -0.45335022 2.161 -2.4882564e+38
0.20573096 -0.44997779 2.1450002 -2.4882566e+38
0.20982094 -0.44618559 2.1270001 -2.4882566e+38
0.21431878 -0.44344208 2.1140001 -2.4615677e+38
0.21916139 -0.44153744 2.105 -2.4615677e+38
0.22427472 -0.44026187 2.0990002 -2.5014965e+38
0.22968334 -0.43961519 2.0960002 -2.4881521e+38
0.23507494 -0.43896827 2.0930002 -2.5281853e+38
0.24033439 -0.43811125 2.089 -2.5014965e+38
0.24557135 -0.43725401 2.085 -2.5014961e+38
0.25102681 -0.43681589 2.0830002 -2.5014961e+38
0.2557312 -0.43511933 2.075 -2.5014961e+38
0.26102108 -0.43447101 2.072 -2.5415297e+38
0.26655123 -0.43424177 2.0710001 -2.5281853e+38
0.27325818 -0.43589926 2.079 -2.5548737e+38
0.28000817 -0.43755633 2.0870001 -2.6482846e+38
0.28762242 -0.44047081 2.1010001 -2.7550398e+38
0.29545206 -0.4435944 2.1160002 -2.7950734e+38
0.30364752 -0.44713658 2.1330001 -2.8484511e+38
0.31164488 -0.45025891 2.148 -2.7685418e+38
0.32075799 -0.45484793 2.1700001 -2.5817731e+38
0.33014095 -0.45964584 2.1930001 -2.5685335e+38
0 0 0 -1.7014118e+38
0 0 0 -1.7014118e+38
0 0 0 -1.7014118e+38
0 0 0 -1.7014118e+38
0 0 0 -1.7014118e+38
0 0 0 -1.7014118e+38
-0.023677858 -0.46269631 2.1760001 -2.7020287e+38
-0.017578024 -0.4590832 2.1590002 -2.6484937e+38
-0.011582085 -0.45589489 2.1440001 -2.8217622e+38
-0.0056842733 -0.45398182 2.135 -2.795073e+38
0.00016416503 -0.45185569 2.125 -2.6483363e+38
0.005954993 -0.44951645 2.1140001 -2.6749734e+38
0.011696641 -0.44760194 2.105 -2.6216475e+38
0.017405532 -0.44611228 2.098 -2.5282366e+38
0.023098085 -0.44504741 2.0930002 -2.5148405e+38
0.028845811 -0.44525781 2.0940001 -2.4881517e+38
0.034664992 -0.44631836 2.0990002 -2.4748077e+38
0.040607724 -0.44844157 2.1090002 -2.4881004e+38
0.046583116 -0.45035154 2.118 -2.5014448e+38
0.05255821 -0.45183581 2.125 -2.461412e+38
0.058461588 -0.45246902 2.128 -2.3280726e+38
0.064290576 -0.45246387 2.128 -2.301332e+38
0.070185266 -0.45288351 2.1300001 -2.2746432e+38
0.076019302 -0.45287746 2.1300001 -2.301332e+38
