# .PCD v0.7 - Point Cloud Data file format
VERSION 0.7
FIELDS x y z rgb
SIZE 4 4 4 4
TYPE F F F F
COUNT 1 1 1 1
WIDTH 1087
HEIGHT 1
VIEWPOINT 0 0 0 1 0 0 0
POINTS 1087
DATA ascii
0.094651647 -0.66960913 1.8240001 -2.4748073e+38
0.099679761 -0.66997087 1.825 -2.4748073e+38
0.10477055 -0.67069954 1.8270001 -2.4749115e+38
0.10975198 -0.67069376 1.8270001 -2.4882559e+38
0.11473328 -0.67068768 1.8270001 -2.5415293e+38
0.11971446 -0.67068136 1.8270001 -2.5148405e+38
0.124832 -0.67140907 1.8290001 -2.4882559e+38
0.12988931 -0.67176932 1.83 -2.5548737e+38
0.13517304 -0.67323065 1.8340001 -2.5815629e+38
0.14047846 -0.6746918 1.8380001 -2.5683228e+38
0.14620131 -0.67798805 1.8470001 -2.5417384e+38
0.15262811 -0.68422061 1.8640001 -2.635202e+38
-0.090813689 -0.7710855 2.085 nan
-0.083740152 -0.75851619 2.0510001 -2.0349141e+38
-0.077766404 -0.75482237 2.0410001 -2.2617164e+38
-0.07198859 -0.75260746 2.0350001 -2.3147807e+38
-0.066439308 -0.75261128 2.0350001 -2.3280726e+38
-0.060889937 -0.7526148 2.0350001 -2.3413653e+38
-0.055394888 -0.75335765 2.0370002 -2.3280209e+38
-0.049839925 -0.75336063 2.0370002 -2.3547097e+38
-0.044263162 -0.75299329 2.036 -2.3014363e+38
-0.038710814 -0.75299561 2.036 -2.3147807e+38
-0.033158422 -0.75299764 2.036 -2.2880919e+38
-0.027646663 -0.75410885 2.039 -2.3281251e+38
-0.022086008 -0.75411022 2.039 -2.2747475e+38
-0.016517228 -0.75374156 2.0380001 -2.3014363e+38
-0.010970009 -0.75448197 2.0400002 -2.2880919e+38
-0.0054198187 -0.75633162 2.0450001 -2.3415212e+38
0.00015772537 -0.75855088 2.0510001 -2.3281768e+38
0.0057736039 -0.76150942 2.059 -2.301488e+38
0.011449704 -0.76557732 2.0700002 -2.3948989e+38
0.017161014 -0.7685352 2.0780001 -2.2747992e+38
0.02265228 -0.76261657 2.062 -2.2881961e+38
0.027110074 -0.73117858 1.9770001 -2.5018628e+38
0.031235738 -0.70269912 1.9000001 -2.3549695e+38
0.035995569 -0.69456077 1.8780001 -2.5150496e+38
0.040941883 -0.69159991 1.8700001 -2.5950116e+38
0.045918375 -0.68974823 1.8650001 -2.5683224e+38
0.050867546 -0.68789637 1.8600001 -2.6083556e+38
0.055849534 -0.68678397 1.8570001 -2.6083556e+38
0.060749475 -0.68493152 1.8520001 -2.6217e+38
0.065479964 -0.68159956 1.8430001 -2.7018182e+38
0.070046537 -0.67715788 1.8310001 -2.7150583e+38
0.07462953 -0.6734556 1.8210001 -2.5015478e+38
0.079463877 -0.672342 1.8180001 -2.5014961e+38
0.084513947 -0.67307717 1.8200001 -2.4348783e+38
0.089623988 -0.67418194 1.8230001 -2.4482231e+38
0.094750293 -0.67528647 1.8260001 -2.4615675e+38
0.099728994 -0.67528129 1.8260001 -2.4615675e+38
0.10482225 -0.67601538 1.8280001 -2.4615675e+38
0.10980617 -0.67600971 1.8280001 -2.4881521e+38
0.11478996 -0.67600381 1.8280001 -2.5014961e+38
0.11983918 -0.67636758 1.8290001 -2.5415293e+38
0.12496192 -0.67710072 1.8310001 -2.4882564e+38
0.13009545 -0.67783374 1.8330001 -2.5282896e+38
0.13523974 -0.67856652 1.835 -2.5549784e+38
0.14039481 -0.67929906 1.8370001 -2.6084605e+38
0.14619383 -0.68298966 1.8470001 -2.4884651e+38
-0.084062263 -0.76704842 2.059 -2.7288232e+38
-0.077838399 -0.76109219 2.043 -2.2884053e+38
-0.071984686 -0.75811589 2.0350001 -2.3281251e+38
-0.066403046 -0.75774711 2.0340002 -2.3147282e+38
-0.060826775 -0.75737798 2.033 -2.3146765e+38
-0.055310283 -0.75775367 2.0340002 -2.301332e+38
-0.049788259 -0.758129 2.0350001 -2.3413653e+38
-0.044260729 -0.75850409 2.036 -2.2480587e+38
-0.038689677 -0.75813383 2.0350001 -2.2747475e+38
-0.033156596 -0.75850832 2.036 -2.3014363e+38
-0.027631579 -0.75925505 2.0380001 -2.2614031e+38
-0.022095621 -0.76000154 2.0400002 -2.2747475e+38
-0.016540624 -0.76037514 2.0410001 -2.3014363e+38
-0.010980155 -0.76074845 2.0420001 -2.3147807e+38
-0.005424819 -0.76261163 2.0470002 -2.3147807e+38
0.00015794735 -0.76521969 2.0540001 -2.3415212e+38
0.0057845004 -0.76857245 2.0630002 -2.3547097e+38
0.011460132 -0.77192491 2.072 -2.3281251e+38
0.017151805 -0.77378684 2.0770001 -2.2481104e+38
0.022662016 -0.76857013 2.0630002 -2.2615073e+38
0.027163424 -0.73801965 1.9810001 -2.3816587e+38
0.031250454 -0.70821416 1.9010001 -2.5418427e+38
0.035955258 -0.69889867 1.876 -2.501705e+38
0.040895846 -0.69591618 1.868 -2.5416336e+38
0.045842003 -0.69367868 1.8620001 -2.5548737e+38
0.050810069 -0.69218582 1.858 -2.6082518e+38
0.055816412 -0.6914379 1.8560001 -2.6215958e+38
0.060844578 -0.69106221 1.8550001 -2.6349402e+38
0.065689586 -0.68882358 1.8490001 -2.6483363e+38
0.070310526 -0.68472201 1.8380001 -2.7017135e+38
0.074789442 -0.6798752 1.825 -2.5950629e+38
0.079503328 -0.67763591 1.8190001 -2.5016521e+38
0.084463008 -0.67763162 1.8190001 -2.4749115e+38
0.089570068 -0.67874461 1.8220001 -2.4482231e+38
0.094745278 -0.6802299 1.8260001 -2.4482231e+38
0.099778347 -0.68059736 1.8270001 -2.4482231e+38
0.10475944 -0.68059212 1.8270001 -2.4482231e+38
0.1097404 -0.68058658 1.8270001 -2.4881521e+38
0.11478403 -0.68095332 1.8280001 -2.4748077e+38
0.11983301 -0.68131995 1.8290001 -2.5014965e+38
0.12502378 -0.68243122 1.8320001 -2.5148409e+38
0.13023078 -0.68354225 1.835 -2.5682185e+38
0.13545403 -0.68465322 1.8380001 -2.541634e+38
0.14061704 -0.68539137 1.84 -2.5550828e+38
0.14634489 -0.6887368 1.8490001 -2.4351921e+38
-0.084547758 -0.77712566 2.0710001 -2.275113e+38
-0.0779486 -0.76774877 2.046 -2.3550228e+38
-0.071980886 -0.76362503 2.0350001 -2.3682096e+38
-0.066301592 -0.76212764 2.0310001 -2.3414166e+38
-0.060703877 -0.76138043 2.029 -2.301332e+38
-0.055198576 -0.7617588 2.0300002 -2.2614031e+38
-0.049736675 -0.76288718 2.033 -2.2880923e+38
-0.044214897 -0.76326501 2.0340002 -2.2747479e+38
-0.038687605 -0.76364243 2.0350001 -2.2880923e+38
-0.033154815 -0.76401955 2.036 -2.2081303e+38
-0.027630096 -0.7647717 2.0380001 -2.2214745e+38
-0.022094434 -0.76552355 2.0400002 -2.2614035e+38
-0.016523527 -0.7651493 2.039 -2.2747479e+38
-0.010984941 -0.76665103 2.043 -2.3147811e+38
-0.0054271766 -0.76852775 2.0480001 -2.301332e+38
0.0001582464 -0.77228051 2.0580001 -2.2612988e+38
0.0057925992 -0.77528232 2.066 -2.2747479e+38
0.011453984 -0.7771582 2.0710001 -2.2614035e+38
0.017117852 -0.77790797 2.0730002 -2.2214216e+38
0.022638826 -0.77340376 2.0610001 -2.3282811e+38
0.027340213 -0.74826038 1.9940001 -2.4751207e+38
0.03123234 -0.7129848 1.9000001 -2.6619423e+38
0.035895839 -0.70285118 1.8730001 -2.4616718e+38
0.040806096 -0.69947177 1.8640001 -2.4749119e+38
0.045814939 -0.69834381 1.8610001 -2.5014965e+38
0.050807368 -0.6972155 1.858 -2.5815629e+38
0.055843525 -0.69683743 1.8570001 -2.5815625e+38
0.060808558 -0.69570863 1.8540001 -2.6083031e+38
0.06575717 -0.69457966 1.8510001 -2.6483363e+38
0.070459843 -0.69119895 1.8420001 -2.6750247e+38
0.074949443 -0.68631697 1.8290001 -2.7018182e+38
0.079586588 -0.68331105 1.8210001 -2.4883077e+38
0.084505051 -0.6829316 1.8200001 -2.4615671e+38
0.089614592 -0.68405288 1.8230001 -2.4882559e+38
0.094792292 -0.68554908 1.8270001 -2.4348787e+38
0.099827863 -0.68591946 1.8280001 -2.4347745e+38
0.10486878 -0.68628955 1.8290001 -2.4481189e+38
0.10985497 -0.68628418 1.8290001 -2.5014965e+38
0.11490383 -0.68665373 1.83 -2.4881521e+38
0.11995804 -0.68702322 1.8310001 -2.5014965e+38
0.1252223 -0.68851805 1.835 -2.5281853e+38
0.13036633 -0.68926233 1.8370001 -2.5281849e+38
0.1354474 -0.6896311 1.8380001 -2.5683228e+38
0.14061023 -0.69037485 1.84 -2.5018095e+38
0.14641698 -0.69412005 1.8500001 -2.4352448e+38
-0.084910862 -0.78613454 2.0800002 -2.408557e+38
-0.078135103 -0.77517802 2.0510001 -2.5952736e+38
-0.072012566 -0.76951253 2.036 -2.3415723e+38
-0.066298187 -0.76762629 2.0310001 -2.3814498e+38
-0.060700748 -0.7668736 2.029 -2.3547097e+38
-0.055168521 -0.76687652 2.029 -2.2480587e+38
-0.049660716 -0.76725721 2.0300002 -2.2614035e+38
-0.044147383 -0.76763755 2.0310001 -2.2746962e+38
-0.038628563 -0.76801765 2.0320001 -2.2746962e+38
-0.033136804 -0.76915336 2.0350001 -2.2348191e+38
-0.027601536 -0.7695328 2.036 -2.2214747e+38
-0.022071617 -0.77029002 2.0380001 -2.2613518e+38
-0.016522663 -0.77066904 2.039 -2.2880406e+38
-0.010989743 -0.77255958 2.0440001 -2.2614035e+38
-0.0054321927 -0.77482778 2.0500002 -2.3014367e+38
0.00015823811 -0.77785164 2.0580001 -2.2347147e+38
0.0057894927 -0.78049719 2.0650001 -2.2614035e+38
0.011442323 -0.78200853 2.069 -2.2880923e+38
0.017100442 -0.78276378 2.0710001 -2.2348702e+38
0.022615675 -0.77822721 2.059 -2.3282811e+38
0.031181399 -0.71699446 1.8970001 -2.6886311e+38
0.03581731 -0.70640975 1.8690001 -2.4751207e+38
0.040738307 -0.70338416 1.8610001 -2.4483276e+38
0.045787949 -0.703004 1.8600001 -2.4882564e+38
0.050777402 -0.7018677 1.8570001 -2.5281853e+38
0.055780508 -0.70110905 1.8550001 -2.5816143e+38
0.060772639 -0.70035011 1.853 -2.6083031e+38
0.06575381 -0.6995911 1.8510001 -2.6216475e+38
0.070609249 -0.69769782 1.8460001 -2.6883695e+38
0.075191483 -0.6935367 1.835 -2.6884738e+38
0.079801075 -0.69013131 1.8260001 -2.5416336e+38
0.084547222 -0.68823749 1.8210001 -2.4882559e+38
0.089560956 -0.68861121 1.8220001 -2.4749115e+38
0.09478756 -0.69049633 1.8270001 -2.4482231e+38
0.099986732 -0.69200331 1.8310001 -2.4614633e+38
0.10497827 -0.69199836 1.8310001 -2.4614633e+38
0.10996971 -0.69199312 1.8310001 -2.4748077e+38
0.11496102 -0.69198769 1.8310001 -2.4614633e+38
0.12014877 -0.69311583 1.8340001 -2.5014965e+38
0.12528452 -0.69386584 1.8360001 -2.5281849e+38
0.13057299 -0.69537157 1.84 -2.5548737e+38
0.13566205 -0.69574326 1.8410001 -2.5548737e+38
0.14090928 -0.69687057 1.8440001 -2.528394e+38
0.14696413 -0.7017768 1.8570001 -2.5018626e+38
-0.092885278 -0.81193745 2.1330001 nan
-0.085274056 -0.79519284 2.089 -2.3284383e+38
-0.078588374 -0.78529978 2.0630002 -2.6085647e+38
-0.072291948 -0.77807093 2.0440001 -2.4348789e+38
-0.066425458 -0.77464837 2.0350001 -2.3815013e+38
-0.060757544 -0.77312881 2.0310001 -2.408139e+38
-0.055220138 -0.77313167 2.0310001 -2.2880919e+38
-0.049682673 -0.77313417 2.0310001 -2.2347147e+38
-0.044145159 -0.77313656 2.0310001 -2.2213185e+38
-0.038626611 -0.77351922 2.0320001 -2.1947859e+38
-0.033118848 -0.77428246 2.0340002 -2.2080788e+38
-0.027586583 -0.77466452 2.0350001 -2.2214232e+38
-0.02205967 -0.77542716 2.0370002 -2.18139e+38
-0.016529925 -0.77657014 2.0400002 -2.2346634e+38
-0.010989184 -0.77809352 2.0440001 -2.2880406e+38
-0.0054319161 -0.78037792 2.0500002 -2.3280738e+38
0.0001581532 -0.78304279 2.0570002 -2.2880406e+38
0.0057835919 -0.78532666 2.0630002 -2.2614035e+38
0.011425152 -0.78646827 2.066 -2.2081301e+38
0.017041778 -0.78570622 2.0640001 -2.2881436e+38
0.022559613 -0.7818985 2.0540001 -2.2882479e+38
0.031262007 -0.72403389 1.9020001 nan
0.03583467 -0.71185082 1.8700001 -2.3551253e+38
0.040714364 -0.70804214 1.8600001 -2.4350874e+38
0.04576103 -0.70765942 1.8590001 -2.4882564e+38
0.050720166 -0.70613438 1.8550001 -2.5148405e+38
0.055747647 -0.70575106 1.8540001 -2.5415293e+38
0.06073682 -0.70498693 1.8520001 -2.5682699e+38
0.065750539 -0.70460308 1.8510001 -2.5816143e+38
0.070643999 -0.70307714 1.8470001 -2.6349402e+38
0.075392656 -0.70040905 1.84 -2.6084073e+38
0.079971962 -0.69659865 1.83 -2.5816668e+38
0.084682375 -0.69431084 1.8240001 -2.5149452e+38
0.089605756 -0.69392598 1.8230001 -2.5016008e+38
0.094834857 -0.69582474 1.8280001 -2.4748077e+38
0.10003653 -0.69734281 1.8320001 -2.4881521e+38
0.10508792 -0.69771862 1.8330001 -2.4614116e+38
0.11008461 -0.69771355 1.8330001 -2.4481189e+38
0.11508117 -0.69770831 1.8330001 -2.4881521e+38
0.12014315 -0.69808352 1.8340001 -2.4881517e+38
0.12541518 -0.6996004 1.8380001 -2.5014961e+38
0.13077983 -0.70149767 1.8430001 -2.5148922e+38
0.13595058 -0.70225292 1.845 -2.5281849e+38
0.14128496 -0.70376921 1.8490001 -2.528394e+38
0.14743234 -0.70909148 1.863 -2.448485e+38
-0.092576057 -0.81503063 2.1260002 nan
-0.085392445 -0.80200034 2.092 -2.0215697e+38
-0.079003617 -0.79510367 2.0740001 -2.635202e+38
-0.072748229 -0.78859001 2.0570002 -2.5816674e+38
-0.066748641 -0.78399289 2.0450001 -2.4615677e+38
-0.060963996 -0.78131229 2.0380001 -2.3815013e+38
-0.055299021 -0.77978158 2.0340002 -2.3682096e+38
-0.049680255 -0.77863395 2.0310001 -2.2614031e+38
-0.044143006 -0.77863622 2.0310001 -2.1947857e+38
-0.038624719 -0.7790215 2.0320001 -2.1680969e+38
-0.033100937 -0.77940661 2.033 -2.1147722e+38
-0.027571674 -0.77979159 2.0340002 -2.1281166e+38
-0.022058586 -0.78094286 2.0370002 -2.1413568e+38
-0.016537217 -0.78247732 2.0410001 -2.1013236e+38
-0.010983266 -0.78324467 2.043 -2.1547012e+38
-0.0054210504 -0.78439528 2.046 -2.1414083e+38
0.00015760722 -0.78592896 2.0500002 -2.1946815e+38
0.0057608793 -0.78784561 2.0550001 -2.2880919e+38
0.011380352 -0.78899539 2.0580001 -2.2614031e+38
0.016974891 -0.78822798 2.056 -2.2747988e+38
0.022503588 -0.78554332 2.049 -2.3282811e+38
0.031391956 -0.73225117 1.9100001 nan
0.035871238 -0.71768117 1.8720001 -2.341834e+38
0.040734261 -0.71346217 1.8610001 -2.3951589e+38
0.045709573 -0.7119267 1.8570001 -2.4615675e+38
0.050663017 -0.71039081 1.853 -2.4881521e+38
0.055624679 -0.70923823 1.8500001 -2.5548737e+38
0.060701087 -0.70961881 1.8510001 -2.5815629e+38
0.065711863 -0.70923251 1.8500001 -2.5815625e+38
0.070717111 -0.70884585 1.8490001 -2.6082513e+38
0.075552955 -0.70692563 1.8440001 -2.6083556e+38
0.080186658 -0.7034716 1.835 -2.6350444e+38
0.084724799 -0.69963419 1.825 -2.4881517e+38
0.089601539 -0.69886339 1.8230001 -2.4614629e+38
0.094726682 -0.70000929 1.8260001 -2.4748077e+38
0.099977277 -0.70192158 1.8310001 -2.4480672e+38
0.10508307 -0.70268369 1.8330001 -2.4213784e+38
0.1101396 -0.70306212 1.8340001 -2.474756e+38
0.11507592 -0.70267367 1.8330001 -2.4615675e+38
0.12026872 -0.7038185 1.8360001 -2.5014961e+38
0.12547776 -0.70496315 1.8390001 -2.5148405e+38
0.13091592 -0.70725739 1.845 -2.5014961e+38
0.13631299 -0.70916837 1.8500001 -2.5148405e+38
0.14173721 -0.711079 1.8550001 -2.5416342e+38
0.14782161 -0.71605611 1.868 -2.4350359e+38
0.15504092 -0.7260161 1.8940001 -2.2083901e+38
-0.092571817 -0.82078922 2.1260002 nan
-0.085429341 -0.80805284 2.0930002 -2.1016361e+38
-0.079152323 -0.80226541 2.0780001 -2.3816587e+38
-0.072992392 -0.79686373 2.0640001 -2.4615677e+38
-0.066941366 -0.79184806 2.0510001 -2.5149454e+38
-0.061050881 -0.78799009 2.0410001 -2.4349317e+38
-0.055350792 -0.78606236 2.036 -2.4215873e+38
-0.049726833 -0.78490651 2.033 -2.3948989e+38
-0.044184383 -0.78490865 2.033 -2.3414695e+38
-0.0386419 -0.78491062 2.033 -2.2480591e+38
-0.033099372 -0.78491229 2.033 -2.1680971e+38
-0.027556809 -0.78491366 2.033 -2.1280639e+38
-0.022046708 -0.78607315 2.036 -2.1280124e+38
-0.016520225 -0.78723234 2.039 -2.0746347e+38
-0.010966618 -0.78761905 2.0400002 -2.0746863e+38
-0.0054075452 -0.78800559 2.0410001 -2.1680971e+38
0.00015713845 -0.78916395 2.0440001 -2.2748521e+38
0.0057381797 -0.79032207 2.0470002 -2.3281251e+38
0.011330043 -0.79109383 2.049 -2.301488e+38
0.016899779 -0.79032099 2.0470002 -2.381554e+38
0.02244761 -0.78916174 2.0440001 -2.3950031e+38
0.027677475 -0.77950847 2.0190001 -2.3952118e+38
0.035965346 -0.72468132 1.8770001 -2.3551784e+38
0.040754229 -0.71888828 1.8620001 -2.3951589e+38
0.04568281 -0.71656978 1.8560001 -2.5016008e+38
0.050605964 -0.7146371 1.8510001 -2.5415297e+38
0.055531874 -0.71309036 1.8470001 -2.5014965e+38
0.060534298 -0.71270168 1.8460001 -2.5281853e+38
0.065566726 -0.7126987 1.8460001 -2.5014965e+38
0.070599109 -0.71269566 1.8460001 -2.5682185e+38
0.075590439 -0.7123062 1.845 -2.5950112e+38
0.080357768 -0.70998627 1.8390001 -2.6750776e+38
0.084953047 -0.70650792 1.83 -2.6082513e+38
0.089646623 -0.70418763 1.8240001 -2.5281849e+38
0.094670519 -0.70456958 1.825 -2.5415297e+38
0.099918202 -0.70649564 1.83 -2.4481189e+38
0.10513572 -0.70803541 1.8340001 -2.4480672e+38
0.11025483 -0.70880288 1.8360001 -2.3948457e+38
0.11532197 -0.70918393 1.8370001 -2.4348789e+38
0.12045999 -0.70995098 1.8390001 -2.4482231e+38
0.12574525 -0.71148998 1.8430001 -2.4881517e+38
0.13119413 -0.71380085 1.8490001 -2.5148405e+38
0.13674928 -0.7164976 1.8560001 -2.5014961e+38
0.14203684 -0.71764982 1.8590001 -2.5415293e+38
0.14789456 -0.72150427 1.8690001 -2.4349317e+38
0.15462522 -0.72921884 1.8890001 -2.3550743e+38
-0.092611268 -0.82693744 2.1270001 nan
-0.085384719 -0.81333387 2.092 -2.1817025e+38
-0.079072624 -0.80711693 2.0760002 -2.2483191e+38
-0.073024482 -0.80284357 2.0650001 -2.381554e+38
-0.06700363 -0.79818135 2.0530002 -2.24811e+38
-0.061137859 -0.79468501 2.0440001 -2.234766e+38
-0.055402663 -0.79235494 2.0380001 -2.3148324e+38
-0.049773496 -0.79119086 2.0350001 -2.3815545e+38
-0.044204108 -0.79080415 2.0340002 -2.3815027e+38
-0.038659144 -0.79080606 2.0340002 -2.3681583e+38
-0.033081576 -0.79003 2.0320001 -2.3815027e+38
-0.027528441 -0.78964263 2.0310001 -2.3948471e+38
-0.022013213 -0.79042131 2.033 -2.4081915e+38
-0.016487058 -0.7911998 2.0350001 -2.3948471e+38
-0.010949987 -0.791978 2.0370002 -2.3682626e+38
-0.0053940495 -0.79158944 2.036 -2.3415738e+38
0.0001565931 -0.79197848 2.0370002 -2.3282294e+38
0.0057154913 -0.79275584 2.039 -2.3014363e+38
0.01127423 -0.79275548 2.039 -2.2881436e+38
0.016849469 -0.79353243 2.0410001 -2.3281768e+38
0.022435598 -0.79430914 2.043 -2.3415738e+38
0.027799577 -0.78847617 2.0280001 -2.1816498e+38
0.031964224 -0.75620478 1.9450001 -2.9823657e+38
0.036021188 -0.7309317 1.8800001 -2.5285514e+38
0.040708605 -0.72315413 1.8600001 -2.5282898e+38
0.045606893 -0.72043061 1.853 -2.5281853e+38
0.050548993 -0.71887332 1.8490001 -2.5014965e+38
0.055499304 -0.71770459 1.8460001 -2.4748077e+38
0.060498785 -0.71731323 1.845 -2.5281853e+38
0.065563791 -0.71769923 1.8460001 -2.5415297e+38
0.070595957 -0.71769625 1.8460001 -2.5014961e+38
0.075546123 -0.71691555 1.8440001 -2.5282892e+38
0.080441602 -0.71574575 1.8410001 -2.5950629e+38
0.085042156 -0.7122432 1.8320001 -2.6751289e+38
0.089790143 -0.71029556 1.8270001 -2.5816143e+38
0.094614543 -0.70912522 1.8240001 -2.5281849e+38
0.099859282 -0.71106505 1.8290001 -2.4748077e+38
0.10501656 -0.71222705 1.8320001 -2.4213784e+38
0.11031019 -0.71416634 1.8370001 -2.4213784e+38
0.11537988 -0.71455044 1.8380001 -2.4081901e+38
0.12071694 -0.71648937 1.8430001 -2.4482233e+38
0.12594469 -0.71765053 1.8460001 -2.5016008e+38
0.13133062 -0.71958917 1.8510001 -2.5149452e+38
0.13674368 -0.72152758 1.8560001 -2.5016008e+38
0.1421839 -0.7234658 1.8610001 -2.5282896e+38
0.14788865 -0.72657007 1.8690001 -2.4484318e+38
0.15445538 -0.73356152 1.8870001 -2.2617676e+38
-0.092737935 -0.83387482 2.1300001 nan
-0.085258633 -0.81782734 2.089 -2.2217354e+38
-0.07891687 -0.81117547 2.072 -2.19489e+38
-0.072915249 -0.80726367 2.062 -2.3148324e+38
-0.066902824 -0.80256885 2.0500002 -2.3815545e+38
-0.061075378 -0.79943943 2.0420001 -2.2880919e+38
-0.055400245 -0.797876 2.0380001 -2.2614031e+38
-0.049746864 -0.79631227 2.0340002 -2.23461e+38
-0.044202171 -0.79631424 2.0340002 -2.2746432e+38
-0.03860043 -0.79514158 2.0310001 -2.3146765e+38
-0.033031281 -0.79435998 2.029 -2.3280726e+38
-0.027473012 -0.79357839 2.0270002 -2.301488e+38
-0.02197976 -0.79475403 2.0300002 -2.3948989e+38
-0.016462026 -0.79553783 2.0320001 -2.3415212e+38
-0.010933376 -0.79632139 2.0340002 -2.3548139e+38
-0.0053885127 -0.79632181 2.0340002 -2.3147807e+38
0.00015643242 -0.79671335 2.0350001 -2.2480591e+38
0.0057068286 -0.79710466 2.036 -2.2213699e+38
0.011257144 -0.79710436 2.036 -2.2214741e+38
0.016840469 -0.79866982 2.0400002 -2.2748517e+38
0.02245657 -0.8006264 2.0450001 -2.2881965e+38
0.027908007 -0.7971018 2.036 -2.0748948e+38
0.032455813 -0.77321881 1.9750001 nan
0.036153719 -0.73876506 1.8870001 -2.7954395e+38
0.040728699 -0.72858435 1.8610001 -2.5018095e+38
0.04558029 -0.72505897 1.8520001 -2.5014965e+38
0.050519451 -0.72349089 1.848 -2.5415297e+38
0.055496898 -0.72270572 1.8460001 -2.4881521e+38
0.060430586 -0.72152877 1.8430001 -2.4614633e+38
0.065418914 -0.72113466 1.8420001 -2.4749119e+38
0.070401721 -0.7207402 1.8410001 -2.4881517e+38
0.075419985 -0.72073716 1.8410001 -2.4883077e+38
0.080350809 -0.71995091 1.8390001 -2.5550297e+38
0.085224234 -0.71877295 1.8360001 -2.6217513e+38
0.090032093 -0.7172035 1.8320001 -2.6350957e+38
0.094818071 -0.71563369 1.8280001 -2.4883077e+38
0.09990973 -0.71641266 1.83 -2.5282892e+38
0.10506954 -0.717583 1.8330001 -2.4480672e+38
0.11030567 -0.71914458 1.8370001 -2.4213784e+38
0.11550073 -0.7203145 1.84 -2.4081901e+38
0.12077757 -0.72187567 1.8440001 -2.4348789e+38
0.12607612 -0.72343683 1.848 -2.4615677e+38
0.13125448 -0.72421473 1.8500001 -2.4482231e+38
0.13666464 -0.7261669 1.8550001 -2.461672e+38
0.14202558 -0.72772747 1.8590001 -2.39495e+38
0.14780384 -0.7312451 1.868 -2.4083986e+38
0.15461321 -0.73946011 1.8890001 -2.3151452e+38
-0.11311434 -0.91020036 2.309 nan
-0.084928654 -0.82033461 2.0810001 -2.1550137e+38
-0.078532755 -0.81284809 2.062 -2.2216832e+38
-0.072700068 -0.8104859 2.056 -2.2881436e+38
-0.066802144 -0.80694097 2.0470002 -2.301488e+38
-0.061072834 -0.80497247 2.0420001 -2.3014363e+38
-0.05539792 -0.80339801 2.0380001 -2.2747479e+38
-0.049744774 -0.80182338 2.0340002 -2.2614035e+38
-0.044156846 -0.80103683 2.0320001 -2.2614031e+38
-0.038579792 -0.80025017 2.0300002 -2.3014363e+38
-0.03302988 -0.79985738 2.029 -2.3414695e+38
-0.027485399 -0.7994644 2.0280001 -2.3414699e+38
-0.021978823 -0.80025399 2.0300002 -2.32823e+38
-0.016453225 -0.80064899 2.0310001 -2.32823e+38
-0.010927536 -0.80143791 2.033 -2.1547012e+38
-0.0053829844 -0.80104405 2.0320001 -2.1280124e+38
0.00015627203 -0.80143839 2.033 -2.1547012e+38
0.0057009808 -0.8018325 2.0340002 -2.2214747e+38
0.011267723 -0.80340904 2.0380001 -2.2481635e+38
0.016864516 -0.80537939 2.043 -2.2482678e+38
0.022488559 -0.80734974 2.0480001 -2.221579e+38
0.027989065 -0.80498338 2.0420001 -2.008017e+38
0.036228828 -0.74545461 1.891 -2.6352024e+38
0.040726986 -0.7336266 1.8610001 -2.5684272e+38
0.045529157 -0.72928864 1.8500001 -2.6082518e+38
0.050490003 -0.728104 1.8470001 -2.5148409e+38
0.055434458 -0.72691923 1.8440001 -2.5415297e+38
0.060428075 -0.72652256 1.8430001 -2.4881521e+38
0.065380685 -0.72573161 1.8410001 -2.5148409e+38
0.070360579 -0.72533464 1.84 -2.5281853e+38
0.075253032 -0.72414917 1.8370001 -2.5148405e+38
0.08030384 -0.72454029 1.8380001 -2.4749633e+38
0.085267194 -0.72414279 1.8370001 -2.5416853e+38
0.090323322 -0.72453356 1.8380001 -2.6484405e+38
0.094969876 -0.72177047 1.8310001 -2.5550297e+38
0.099851176 -0.72097838 1.8290001 -2.4882559e+38
0.10489344 -0.72136849 1.83 -2.5016008e+38
0.11024131 -0.72372955 1.8360001 -2.4348789e+38
0.11555903 -0.72569621 1.8410001 -2.4347228e+38
0.12083843 -0.72726852 1.845 -2.4081901e+38
0.12613952 -0.72884059 1.8490001 -2.4348789e+38
0.13132046 -0.72962409 1.8510001 -2.4615677e+38
0.13658586 -0.73080176 1.8540001 -2.4216388e+38
0.14194393 -0.73237342 1.858 -2.4483274e+38
0.14795667 -0.73709828 1.8700001 -2.4751207e+38
0.15501687 -0.74655294 1.8940001 -2.4619852e+38
0.20731881 -0.90774685 2.3030002 -3.089226e+38
-0.27087656 -0.91789198 2.3130002 nan
-0.26457506 -0.91789931 2.3130002 nan
-0.22666578 -0.91754532 2.312 nan
-0.18264553 -0.91798854 2.3130002 nan
-0.17611374 -0.91680402 2.3100002 nan
-0.17003928 -0.9180007 2.3130002 nan
-0.15112907 -0.91801769 2.3130002 nan
-0.14438714 -0.91524464 2.306 nan
-0.13822229 -0.91604358 2.3080001 nan
-0.13198927 -0.91644543 2.309 nan
-0.12585957 -0.91764086 2.312 nan
-0.11929975 -0.91566104 2.3070002 nan
-0.11281608 -0.91407764 2.3030002 nan
-0.084517218 -0.82200575 2.0710001 -2.2884578e+38
-0.078186922 -0.81486452 2.0530002 -2.4085049e+38
-0.072485052 -0.81367666 2.0500002 -2.4082433e+38
-0.066701584 -0.81129783 2.0440001 -2.3415212e+38
-0.061040487 -0.81010956 2.0410001 -2.2347143e+38
-0.055368524 -0.80852419 2.0370002 -2.2080255e+38
-0.049742769 -0.80733544 2.0340002 -2.2480591e+38
-0.044155065 -0.80654347 2.0320001 -2.3548143e+38
-0.038559228 -0.8053543 2.029 -2.368263e+38
-0.033044826 -0.80575275 2.0300002 -2.2881968e+38
-0.02751139 -0.80575395 2.0300002 -2.2481635e+38
-0.021988757 -0.80615181 2.0310001 -2.008017e+38
-0.016460655 -0.80654949 2.0320001 -2.0613946e+38
-0.010921715 -0.80655009 2.0320001 -2.074739e+38
-0.0053801164 -0.80615348 2.0310001 -2.1281166e+38
0.00015626564 -0.80694729 2.033 -2.1548054e+38
0.0057035508 -0.80774117 2.0350001 -2.2215275e+38
0.01127832 -0.8097254 2.0400002 -2.2348719e+38
0.016872087 -0.81131262 2.0440001 -2.1281166e+38
0.022509605 -0.81369328 2.0500002 -2.1948386e+38
0.027987927 -0.81051689 2.0420001 -2.008017e+38
0.036342308 -0.75296062 1.8970001 -2.4617251e+38
0.040747225 -0.73906684 1.8620001 -2.6351493e+38
0.04555193 -0.73469895 1.8510001 -2.5682185e+38
0.050460648 -0.73271251 1.8460001 -2.5281849e+38
0.055462305 -0.73231357 1.845 -2.5415297e+38
0.060392894 -0.73112059 1.8420001 -2.5148409e+38
0.065307073 -0.7299273 1.8390001 -2.4748077e+38
0.070204861 -0.72873396 1.8360001 -2.5148409e+38
0.075168155 -0.72833419 1.835 -2.5014961e+38
0.080213331 -0.72872818 1.8360001 -2.4348783e+38
0.085217483 -0.72872514 1.8360001 -2.4882559e+38
0.090221561 -0.72872174 1.8360001 -2.5149448e+38
0.095018119 -0.72713065 1.8320001 -2.6083556e+38
0.099901974 -0.72633326 1.83 -2.5416336e+38
0.10488948 -0.72632939 1.83 -2.5016008e+38
0.11011712 -0.72791314 1.8340001 -2.4615675e+38
0.11549196 -0.73029035 1.84 -2.4347228e+38
0.120703 -0.73147684 1.8430001 -2.4215345e+38
0.12606671 -0.73345691 1.848 -2.4482233e+38
0.13131574 -0.73464304 1.8510001 -2.4348789e+38
0.13658099 -0.73582906 1.8540001 -2.4882566e+38
0.14201532 -0.7378087 1.8590001 -2.4216386e+38
0.14803062 -0.74256629 1.8710001 -2.4484318e+38
0.15550257 -0.75407076 1.9000001 -2.4753296e+38
0.20587167 -0.90764374 2.2870002 -2.7689602e+38
0.21321619 -0.91239929 2.299 nan
0.21995778 -0.91437691 2.3040001 nan
0.22662827 -0.91595739 2.3080001 nan
0.23321958 -0.91714108 2.3110001 nan
0.23951614 -0.91713393 2.3110001 nan
0.30877164 -0.91705465 2.3110001 nan
0.3152034 -0.91744435 2.312 nan
0.32164055 -0.91783434 2.3130002 nan
0.34684315 -0.91780746 2.3130002 nan
0.35944426 -0.91779482 2.3130002 nan
0.36558661 -0.9173919 2.312 nan
0.37172359 -0.91698945 2.3110001 nan
0.39724752 -0.91776192 2.3130002 nan
0.4031992 -0.9169637 2.3110001 nan
0.4098489 -0.91775292 2.3130002 nan
0.41632956 -0.91814554 2.3140001 nan
-0.33944559 -0.92210269 2.3080001 nan
-0.3333028 -0.92250818 2.309 nan
-0.32687128 -0.92211479 2.3080001 nan
-0.32044518 -0.92172158 2.3070002 nan
-0.31416062 -0.92172796 2.3070002 nan
-0.30787602 -0.92173433 2.3070002 nan
-0.30159137 -0.92174083 2.3070002 nan
-0.29517859 -0.92134792 2.306 nan
-0.28902179 -0.92175412 2.3070002 nan
-0.2827369 -0.9217608 2.3070002 nan
-0.27645195 -0.92176753 2.3070002 nan
-0.26981556 -0.92057562 2.3040001 nan
-0.26308107 -0.91898417 2.3000002 nan
-0.2568149 -0.91899091 2.3000002 nan
-0.2509844 -0.92059582 2.3040001 nan
-0.24523816 -0.92260027 2.309 nan
-0.23874021 -0.92180783 2.3070002 nan
-0.2321523 -0.92061579 2.3040001 nan
-0.22587474 -0.92062229 2.3040001 nan
-0.22026426 -0.92342585 2.3110001 nan
-0.21405998 -0.92383182 2.312 nan
-0.20749071 -0.92263937 2.309 nan
-0.20058915 -0.91984862 2.302 nan
-0.19423211 -0.91945517 2.3010001 nan
-0.18771701 -0.91826236 2.2980001 nan
-0.18153401 -0.91866785 2.299 nan
-0.17511676 -0.91787452 2.2970002 nan
-0.16900434 -0.91867924 2.299 nan
-0.16302249 -0.9202832 2.3030002 nan
-0.15688263 -0.92108762 2.3050001 nan
-0.15053575 -0.92069328 2.3040001 nan
-0.14363071 -0.91670221 2.2940001 nan
-0.13749874 -0.91750622 2.296 nan
-0.1312986 -0.91791064 2.2970002 nan
-0.12536512 -0.92031288 2.3030002 nan
-0.11888172 -0.91871864 2.299 nan
-0.11237108 -0.9167248 2.2940001 nan
-0.084514067 -0.82761991 2.0710001 -2.1284292e+38
-0.078069724 -0.81923074 2.0500002 -2.2884574e+38
-0.072305523 -0.81723535 2.0450001 -2.3283855e+38
-0.066601157 -0.8156395 2.0410001 -2.3683143e+38
-0.061038159 -0.81564182 2.0410001 -2.368263e+38
-0.05539358 -0.81444514 2.0380001 -2.301541e+38
-0.049740858 -0.81284851 2.0340002 -2.3149898e+38
-0.044131637 -0.81165147 2.0310001 -2.3016454e+38
-0.038595747 -0.81165302 2.0310001 -2.141461e+38
-0.0330761 -0.81205398 2.0320001 -1.9946728e+38
-0.027537422 -0.81205511 2.0320001 -1.9412959e+38
-0.021987902 -0.81165648 2.0310001 -1.9813286e+38
-0.016451914 -0.81165713 2.0310001 -2.0747392e+38
-0.010915915 -0.81165767 2.0310001 -2.0881879e+38
-0.0053825551 -0.81205761 2.0320001 -2.1549099e+38
0.00015625954 -0.81245732 2.033 -2.2082873e+38
0.0057033286 -0.8132565 2.0350001 -2.1415653e+38
0.011272352 -0.81485474 2.039 -1.9680882e+38
0.016863173 -0.81645268 2.043 -2.1282209e+38
0.022497747 -0.81884974 2.049 -2.1815458e+38
0.028000543 -0.81645089 2.043 -2.0348613e+38
0.036417533 -0.75970072 1.9010001 -2.2215254e+38
0.040811308 -0.74531257 1.8650001 -2.5951161e+38
0.045574792 -0.7401157 1.8520001 -2.5682185e+38
0.050513376 -0.73851526 1.848 -2.5281849e+38
0.055460189 -0.73731446 1.845 -2.5148405e+38
0.060390595 -0.73611349 1.8420001 -2.5014961e+38
0.065340117 -0.73531181 1.84 -2.4614629e+38
0.07024046 -0.73411059 1.8370001 -2.5281849e+38
0.075165346 -0.73330861 1.835 -2.5014965e+38
0.08016666 -0.73330569 1.835 -2.4614633e+38
0.085121512 -0.73290318 1.8340001 -2.5016008e+38
0.090169117 -0.73329967 1.835 -2.4615675e+38
0.094962783 -0.73169786 1.8310001 -2.5950116e+38
0.099898368 -0.73129487 1.83 -2.5683228e+38
0.10488573 -0.73129117 1.83 -2.4882564e+38
0.11005315 -0.73248631 1.8330001 -2.5149452e+38
0.11529962 -0.73408091 1.8370001 -2.5281336e+38
0.12056782 -0.73567533 1.8410001 -2.3815013e+38
0.12599416 -0.73806876 1.8470001 -2.3948457e+38
0.13138218 -0.74006248 1.8520001 -2.4480672e+38
0.13679738 -0.74205607 1.8570001 -2.4614633e+38
0.14231613 -0.74444902 1.863 -2.4614633e+38
0.14842133 -0.74963909 1.876 -2.4883608e+38
0.15574303 -0.76042324 1.9030001 -2.5017584e+38
0.20415491 -0.90625614 2.2680001 nan
0.21228224 -0.91464114 2.289 nan
0.21937834 -0.91823095 2.2980001 nan
0.22603239 -0.91982275 2.302 nan
0.23230451 -0.91981626 2.302 nan
0.23826559 -0.91861087 2.299 nan
0.24484843 -0.91980302 2.302 nan
0.25101113 -0.91939676 2.3010001 nan
0.25783914 -0.92138773 2.306 nan
0.2636635 -0.91978276 2.302 nan
0.2702868 -0.92097473 2.3050001 nan
0.27608651 -0.91936994 2.3010001 nan
0.28272322 -0.92056179 2.3040001 nan
0.28912538 -0.92095459 2.3050001 nan
0.29553282 -0.9213475 2.306 nan
0.30129135 -0.91974282 2.302 nan
0.3072952 -0.91893721 2.3000002 nan
0.31369707 -0.91933036 2.3010001 nan
0.31996521 -0.91932398 2.3010001 nan
0.32637519 -0.91971725 2.302 nan
0.33264604 -0.91971123 2.302 nan
0.33906406 -0.9201048 2.3030002 nan
0.34533754 -0.9200989 2.3030002 nan
0.35191637 -0.9208923 2.3050001 nan
0.35788447 -0.92008775 2.3030002 nan
0.36368358 -0.9188838 2.3000002 nan
0.36978802 -0.9184792 2.299 nan
0.37686846 -0.92047191 2.3040001 nan
0.38380992 -0.92206532 2.3080001 nan
0.38942108 -0.92046285 2.3040001 nan
0.39501044 -0.91886073 2.3000002 nan
0.40092704 -0.91805792 2.2980001 nan
0.40789592 -0.91965234 2.302 nan
0.41470689 -0.92084771 2.3050001 nan
-0.34422934 -0.92434913 2.2980001 nan
-0.33782223 -0.9239521 2.2970002 nan
-0.33142054 -0.92355508 2.296 nan
-0.3251659 -0.9235605 2.296 nan
-0.31863347 -0.92276168 2.2940001 nan
-0.31238422 -0.92276734 2.2940001 nan
-0.30600154 -0.92237103 2.2930002 nan
-0.30040851 -0.92438811 2.2980001 nan
-0.29414827 -0.92439407 2.2980001 nan
-0.28813845 -0.92520469 2.3000002 nan
-0.28150493 -0.92400396 2.2970002 nan
-0.27500752 -0.92320561 2.2950001 nan
-0.26852098 -0.92240739 2.2930002 nan
-0.26193082 -0.92120677 2.2900002 nan
-0.25558019 -0.92081046 2.289 nan
-0.2495618 -0.92162126 2.2910001 nan
-0.24385099 -0.92363888 2.296 nan
-0.23738855 -0.9228406 2.2940001 nan
-0.23073533 -0.92123753 2.2900002 nan
-0.22449598 -0.92124367 2.2900002 nan
-0.21892367 -0.92406565 2.2970002 nan
-0.21285018 -0.92487621 2.299 nan
-0.20631644 -0.92367518 2.296 nan
-0.19971183 -0.92207187 2.2920001 nan
-0.1932133 -0.92087066 2.289 nan
-0.1868127 -0.92007178 2.2870002 nan
-0.18058085 -0.92007726 2.2870002 nan
-0.17419641 -0.91927809 2.2850001 nan
-0.16804332 -0.9196856 2.286 nan
-0.16181387 -0.91969073 2.286 nan
-0.15572049 -0.92050052 2.2880001 nan
-0.14968142 -0.92171222 2.2910001 nan
-0.14325027 -0.92051005 2.2880001 nan
-0.13707492 -0.92091691 2.289 nan
-0.13072255 -0.92011666 2.2870002 nan
-0.12476203 -0.92213249 2.2920001 nan
-0.11841224 -0.92133206 2.2900002 nan
-0.11202428 -0.92012894 2.2870002 nan
-0.10468118 -0.91047662 2.263 nan
-0.085286386 -0.84087956 2.0900002 -3.3026852e+38
-0.078257345 -0.82680064 2.0550001 -2.2350802e+38
-0.072302923 -0.82277989 2.0450001 -2.3283853e+38
-0.066598751 -0.82117301 2.0410001 -2.1681482e+38
-0.060976129 -0.82037055 2.039 -2.0347054e+38
-0.055337198 -0.81916553 2.036 -2.0346534e+38
-0.049665675 -0.81715566 2.0310001 -1.9546921e+38
-0.044043105 -0.81554806 2.0270002 -1.9413479e+38
-0.038518313 -0.81554955 2.0270002 -2.074739e+38
-0.033042327 -0.81675792 2.0300002 -2.1015321e+38
-0.027536403 -0.81756359 2.0320001 -2.2349761e+38
-0.021987088 -0.81716216 2.0310001 -2.1815987e+38
-0.016451305 -0.81716281 2.0310001 -2.2216319e+38
-0.010915509 -0.81716329 2.0310001 -2.1815987e+38
-0.0053823548 -0.81756592 2.0320001 -2.061499e+38
0.0001563306 -0.81837076 2.0340002 -1.9413998e+38
0.0057031163 -0.81877297 2.0350001 -2.03481e+38
0.011260878 -0.8195774 2.0370002 -2.248372e+38
0.016837787 -0.82078397 2.0400002 -2.2616122e+38
0.022442019 -0.82239264 2.0440001 -2.2749564e+38
0.027985804 -0.82158691 2.0420001 -2.1415123e+38
0.036665224 -0.77008456 1.914 -2.1014264e+38
0.040853571 -0.7511732 1.8670001 -2.6351493e+38
0.045622334 -0.74594116 1.8540001 -2.5681668e+38
0.050620873 -0.74513477 1.8520001 -2.5014961e+38
0.055608474 -0.74432826 1.8500001 -2.5548737e+38
0.060552333 -0.74311918 1.8470001 -2.5415293e+38
0.065479815 -0.74190992 1.8440001 -2.5281849e+38
0.070352651 -0.74029821 1.84 -2.5415293e+38
0.075285554 -0.73949105 1.8380001 -2.5014961e+38
0.080251202 -0.73908597 1.8370001 -2.5148405e+38
0.085118517 -0.73787618 1.8340001 -2.5016008e+38
0.09001857 -0.73706859 1.8320001 -2.4615675e+38
0.094907641 -0.73626071 1.83 -2.5149452e+38
0.099894933 -0.73625743 1.83 -2.5549784e+38
0.10493948 -0.73665643 1.8310001 -2.5149452e+38
0.10992938 -0.73665291 1.8310001 -2.5548737e+38
0.11504471 -0.73745376 1.8330001 -2.5815629e+38
0.12036736 -0.73946166 1.8380001 -2.5415297e+38
0.12585361 -0.74227393 1.845 -2.4213784e+38
0.13144888 -0.74548841 1.853 -2.4614633e+38
0.13694033 -0.74789804 1.8590001 -2.5014965e+38
0.14261721 -0.75111228 1.8670001 -2.5415297e+38
0.14873317 -0.75633788 1.8800001 -2.4882566e+38
0.15598378 -0.76679325 1.9060001 -2.5817201e+38
0.16447532 -0.78247827 1.9450001 -2.408452e+38
0.20198862 -0.90275544 2.2440002 nan
0.21069956 -0.91401392 2.2720001 nan
0.21774922 -0.91762871 2.2810001 nan
0.2243569 -0.91923183 2.2850001 nan
0.23058267 -0.91922575 2.2850001 nan
0.23660101 -0.91841507 2.283 nan
0.24314019 -0.91961569 2.286 nan
0.24958657 -0.92041415 2.2880001 nan
0.25604373 -0.92121255 2.2900002 nan
0.26216808 -0.92080402 2.289 nan
0.26863873 -0.92160237 2.2910001 nan
0.27464023 -0.92079175 2.289 nan
0.28087619 -0.92078549 2.289 nan
0.28723752 -0.92118168 2.2900002 nan
0.29386055 -0.92238253 2.2930002 nan
0.2998454 -0.92157197 2.2910001 nan
0.305953 -0.92116392 2.2900002 nan
0.31232765 -0.92156023 2.2910001 nan
0.31829062 -0.92075002 2.289 nan
0.32424268 -0.91994005 2.2870002 nan
0.33076176 -0.92073905 2.289 nan
0.33729175 -0.92153823 2.2910001 nan
0.34368268 -0.92193538 2.2920001 nan
0.35023171 -0.92273486 2.2940001 nan
0.35632542 -0.92232782 2.2930002 nan
0.36241376 -0.92192096 2.2920001 nan
0.3680141 -0.9203077 2.2880001 nan
0.37490126 -0.92191261 2.2920001 nan
0.3808125 -0.92110425 2.2900002 nan
0.38688189 -0.9206984 2.289 nan
0.39277419 -0.91989058 2.2870002 nan
0.39917904 -0.92028981 2.2880001 nan
0.40629825 -0.92229825 2.2930002 nan
0.41308492 -0.92350239 2.296 nan
-0.34302625 -0.92735857 2.2900002 nan
-0.33664072 -0.92695802 2.289 nan
-0.33026069 -0.92655766 2.2880001 nan
-0.32402775 -0.92656249 2.2880001 nan
-0.31765583 -0.92616248 2.2870002 nan
-0.31088087 -0.92454773 2.283 nan
-0.30439457 -0.92374295 2.2810001 nan
-0.29870346 -0.92536801 2.2850001 nan
-0.29273453 -0.92618346 2.2870002 nan
-0.2863788 -0.92578393 2.286 nan
-0.28015101 -0.92578942 2.286 nan
-0.27380335 -0.92539006 2.2850001 nan
-0.2678124 -0.92620569 2.2870002 nan
-0.26100981 -0.92418629 2.2820001 nan
-0.25434607 -0.92257208 2.2780001 nan
-0.24803089 -0.92217284 2.2770002 nan
-0.24235822 -0.92420346 2.2820001 nan
-0.23624434 -0.92461413 2.283 nan
-0.22982264 -0.92380977 2.2810001 nan
-0.22331376 -0.92260039 2.2780001 nan
-0.21729769 -0.92341596 2.2800002 nan
-0.21117802 -0.92382652 2.2810001 nan
-0.20505281 -0.92423695 2.2820001 nan
-0.19866066 -0.92343235 2.2800002 nan
-0.19236375 -0.92303258 2.279 nan
-0.18615384 -0.92303783 2.279 nan
-0.18002285 -0.92344809 2.2800002 nan
-0.17373382 -0.92304802 2.279 nan
-0.1673767 -0.92224306 2.2770002 nan
-0.16110112 -0.92184269 2.276 nan
-0.15483093 -0.92144239 2.2750001 nan
-0.14889276 -0.92306709 2.279 nan
-0.14261968 -0.92266643 2.2780001 nan
-0.13647173 -0.9230758 2.279 nan
-0.13008961 -0.92186475 2.276 nan
-0.12405037 -0.92308384 2.279 nan
-0.11778788 -0.92268264 2.2780001 nan
-0.11128586 -0.92025614 2.2720001 nan
-0.10440017 -0.91418397 2.2570002 nan
-0.087078959 -0.86436957 2.1340001 nan
-0.078673571 -0.83682901 2.066 -2.2351327e+38
-0.07237117 -0.8291356 2.0470002 -2.3951605e+38
-0.066563837 -0.82630265 2.0400002 -2.4484337e+38
-0.060914222 -0.82508957 2.0370002 -2.4349846e+38
-0.055253748 -0.82347119 2.033 -2.4082958e+38
-0.049590599 -0.82144779 2.0280001 -2.381607e+38
-0.043998111 -0.82023424 2.0250001 -2.3817632e+38
-0.03845996 -0.81983054 2.0240002 -2.3149896e+38
-0.033008613 -0.82145196 2.0280001 -2.261612e+38
-0.027508339 -0.82226324 2.0300002 -2.1014793e+38
-0.021986311 -0.82266903 2.0310001 -2.0880834e+38
-0.016450724 -0.82266968 2.0310001 -1.9813286e+38
-0.010915124 -0.82267016 2.0310001 -1.9546402e+38
-0.0053821653 -0.82307553 2.0320001 -2.0347058e+38
0.00015640195 -0.82429075 2.0350001 -2.1814942e+38
0.0057029151 -0.82429069 2.0350001 -2.2616122e+38
0.011254952 -0.82469541 2.036 -2.2749564e+38
0.016820686 -0.82550508 2.0380001 -2.2750079e+38
0.022397313 -0.82631457 2.0400002 -2.3283855e+38
0.027998526 -0.82752872 2.043 -2.1815971e+38
0.033205323 -0.81861657 2.0210001 -2.4351408e+38
0.040917791 -0.75745076 1.8700001 -2.6484422e+38
0.045620758 -0.75096852 1.8540001 -2.4882566e+38
0.05064645 -0.75056171 1.853 -2.5148405e+38
0.055636607 -0.74974984 1.8510001 -2.5014961e+38
0.060615823 -0.74893785 1.8490001 -2.5682181e+38
0.06561961 -0.74853075 1.848 -2.5416336e+38
0.07057967 -0.74771833 1.8460001 -2.5415293e+38
0.075569734 -0.74731088 1.845 -2.5148405e+38
0.080466941 -0.74609321 1.8420001 -2.5281849e+38
0.085301332 -0.74447036 1.8380001 -2.5415297e+38
0.090113871 -0.74284744 1.8340001 -2.4749119e+38
0.095008269 -0.74203438 1.8320001 -2.5016008e+38
0.10000087 -0.74203134 1.8320001 -2.5816672e+38
0.10505073 -0.74243301 1.8330001 -2.5149452e+38
0.11004595 -0.74242973 1.8330001 -2.5415293e+38
0.11510385 -0.74283135 1.8340001 -2.5682181e+38
0.12029813 -0.74404287 1.8370001 -2.5815629e+38
0.12584972 -0.74727935 1.845 -2.4214301e+38
0.13151582 -0.75092083 1.8540001 -2.4080857e+38
0.13723086 -0.75456214 1.863 -2.5014965e+38
0.14307131 -0.75860846 1.8730001 -2.5682185e+38
0.14920346 -0.7638694 1.886 -2.5149454e+38
0.15581559 -0.77115554 1.904 -2.5950645e+38
0.16362505 -0.78370667 1.9350001 -2.3549182e+38
0.20976654 -0.91613102 2.2620001 nan
0.21678887 -0.91977054 2.2710001 nan
0.22307469 -0.92017001 2.2720001 nan
0.22936586 -0.92056936 2.273 nan
0.23555879 -0.92056376 2.273 nan
0.24196436 -0.92136812 2.2750001 nan
0.24859889 -0.92298245 2.279 nan
0.2546961 -0.92257172 2.2780001 nan
0.26113141 -0.92337614 2.2800002 nan
0.26734301 -0.92337054 2.2800002 nan
0.27331457 -0.92255479 2.2780001 nan
0.2795206 -0.92254925 2.2780001 nan
0.28572661 -0.92254382 2.2780001 nan
0.29244512 -0.92415828 2.2820001 nan
0.29813838 -0.92253304 2.2780001 nan
0.30434421 -0.92252767 2.2780001 nan
0.31068632 -0.9229275 2.279 nan
0.3167558 -0.92251754 2.2780001 nan
0.3225362 -0.92129773 2.2750001 nan
0.32858929 -0.92088801 2.2740002 nan
0.33493134 -0.92128837 2.2750001 nan
0.34142879 -0.92209387 2.2770002 nan
0.34778443 -0.92249453 2.2780001 nan
0.35445639 -0.9237054 2.2810001 nan
0.36098659 -0.92451143 2.283 nan
0.36688438 -0.92369801 2.2810001 nan
0.37277126 -0.92288464 2.279 nan
0.378481 -0.92166668 2.276 nan
0.38451263 -0.92125905 2.2750001 nan
0.39088222 -0.92166132 2.276 nan
0.39743194 -0.92246908 2.2780001 nan
0.40399268 -0.92327714 2.2800002 nan
0.41020459 -0.92327559 2.2800002 nan
-0.34062555 -0.92706472 2.2740002 nan
-0.3341364 -0.92625308 2.2720001 nan
-0.3285242 -0.9278878 2.276 nan
-0.32232377 -0.92789179 2.276 nan
-0.31598443 -0.92748839 2.2750001 nan
-0.30924207 -0.92586219 2.2710001 nan
-0.3030552 -0.92586666 2.2710001 nan
-0.29673761 -0.92546368 2.2700002 nan
-0.29068142 -0.92587608 2.2710001 nan
-0.28474501 -0.92669624 2.273 nan
-0.27867517 -0.927109 2.2740002 nan
-0.27247995 -0.92711395 2.2740002 nan
-0.2664018 -0.92752665 2.2750001 nan
-0.26008943 -0.92712408 2.2740002 nan
-0.25344747 -0.92549843 2.2700002 nan
-0.24704507 -0.9246881 2.2680001 nan
-0.24107838 -0.92550886 2.2700002 nan
-0.23520412 -0.92673707 2.273 nan
-0.22911197 -0.92715001 2.2740002 nan
-0.22242612 -0.92511648 2.2690001 nan
-0.21605341 -0.92430621 2.2670002 nan
-0.20969142 -0.92349577 2.2650001 nan
-0.20387945 -0.92513162 2.2690001 nan
-0.19760993 -0.92472893 2.2680001 nan
-0.19151461 -0.92514157 2.2690001 nan
-0.18525037 -0.92473871 2.2680001 nan
-0.1792284 -0.92555898 2.2700002 nan
-0.17296673 -0.92515594 2.2690001 nan
-0.16678393 -0.92516041 2.2690001 nan
-0.16060106 -0.92516482 2.2690001 nan
-0.15428202 -0.92435384 2.2670002 nan
-0.14836578 -0.92598903 2.2710001 nan
-0.14223984 -0.92640096 2.2720001 nan
-0.13598862 -0.9259972 2.2710001 nan
-0.12934268 -0.92273903 2.263 nan
-0.12301242 -0.92151946 2.26 nan
-0.11690528 -0.92193085 2.2610002 nan
-0.11064567 -0.92111868 2.2590001 nan
-0.10421187 -0.91867542 2.253 nan
-0.097157799 -0.91011554 2.2320001 nan
-0.088218711 -0.88157541 2.1620002 nan
-0.079051845 -0.84651059 2.0760002 -1.7680809e+38
-0.072474904 -0.83591115 2.0500002 -2.3018022e+38
-0.06652905 -0.83142787 2.039 -2.3284385e+38
-0.060822535 -0.82939112 2.0340002 -2.3549186e+38
-0.055143233 -0.82735413 2.029 -2.4216402e+38
-0.049588967 -0.82694799 2.0280001 -2.314885e+38
-0.043996662 -0.82572615 2.0250001 -2.3416255e+38
-0.038458694 -0.82531983 2.0240002 -2.2750079e+38
-0.03297497 -0.82613641 2.026 -2.2616635e+38
-0.027507426 -0.82776856 2.0300002 -2.1281679e+38
-0.021996407 -0.82858479 2.0320001 -2.0480502e+38
-0.016458275 -0.82858539 2.0320001 -2.1014278e+38
-0.010914761 -0.82817817 2.0310001 -2.1948388e+38
-0.0053819856 -0.8285861 2.0320001 -2.2482163e+38
0.00015639672 -0.82980949 2.0350001 -2.2482163e+38
0.0057083298 -0.830625 2.0370002 -2.2749051e+38
0.011260104 -0.8306247 2.0370002 -2.2881965e+38
0.016811874 -0.83062428 2.0370002 -2.3282294e+38
0.022396568 -0.83184695 2.0400002 -2.3549182e+38
0.028011302 -0.8334772 2.0440001 -2.3815027e+38
0.033319231 -0.82695192 2.0280001 -2.4482252e+38
0.040916447 -0.76252246 1.8700001 -2.6484426e+38
0.045619257 -0.75599676 1.8540001 -2.461672e+38
0.050617471 -0.7551797 1.8520001 -2.4615677e+38
0.055634804 -0.75477022 1.8510001 -2.4482231e+38
0.060679436 -0.75476849 1.8510001 -2.5148405e+38
0.065759532 -0.75517428 1.8520001 -2.5148405e+38
0.070806809 -0.75517219 1.8520001 -2.5549254e+38
0.075895004 -0.7555775 1.853 -2.5148922e+38
0.08081387 -0.75435191 1.8500001 -2.5549254e+38
0.085669927 -0.75271839 1.8460001 -2.5548737e+38
0.090356737 -0.74986142 1.8390001 -2.5415293e+38
0.095264636 -0.74904317 1.8370001 -2.4882559e+38
0.10032532 -0.749448 1.8380001 -2.5416336e+38
0.1053341 -0.74944496 1.8380001 -2.5416336e+38
0.11028279 -0.74903411 1.8370001 -2.5550297e+38
0.11522598 -0.74862307 1.8360001 -2.5682181e+38
0.12029462 -0.74902749 1.8370001 -2.5548737e+38
0.12564147 -0.75106275 1.8420001 -2.5682185e+38
0.13129926 -0.75472885 1.8510001 -2.4080857e+38
0.13715334 -0.75921035 1.8620001 -2.3947413e+38
0.14314371 -0.76409942 1.8740001 -2.5682185e+38
0.14927851 -0.76939613 1.8870001 -2.5682185e+38
0.15556593 -0.77510047 1.9010001 -2.5549786e+38
0.16294426 -0.78569728 1.927 -2.4483803e+38
0.20827755 -0.91574878 2.2460001 nan
0.21535169 -0.9198209 2.256 nan
0.22169477 -0.92063129 2.2580001 nan
0.22774599 -0.92021847 2.2570002 nan
0.23430981 -0.92184418 2.2610002 nan
0.24057631 -0.92224675 2.2620001 nan
0.24761175 -0.92550337 2.2700002 nan
0.25357264 -0.92468268 2.2680001 nan
0.26032427 -0.92671597 2.273 nan
0.26616511 -0.92548794 2.2700002 nan
0.27246943 -0.92589062 2.2710001 nan
0.27841103 -0.92507011 2.2690001 nan
0.28446716 -0.92465758 2.2680001 nan
0.2906459 -0.92465276 2.2680001 nan
0.29643196 -0.92342484 2.2650001 nan
0.30246893 -0.92301261 2.2640002 nan
0.3086367 -0.92300802 2.2640002 nan
0.31480443 -0.92300367 2.2640002 nan
0.32083037 -0.92259169 2.263 nan
0.32685095 -0.92217994 2.2620001 nan
0.33301327 -0.92217606 2.2620001 nan
0.33992532 -0.92421079 2.2670002 nan
0.34671193 -0.92583787 2.2710001 nan
0.35320961 -0.92664987 2.273 nan
0.35908583 -0.92583156 2.2710001 nan
0.36462945 -0.92419803 2.2670002 nan
0.37047848 -0.92338002 2.2650001 nan
0.37581778 -0.92133927 2.26 nan
0.38214409 -0.921745 2.2610002 nan
0.38881946 -0.92296642 2.2640002 nan
0.39533672 -0.92378026 2.266 nan
0.40151063 -0.92377913 2.266 nan
0.40768477 -0.92377853 2.266 nan
0.41458964 -0.92540896 2.2700002 nan
-0.33912435 -0.92914814 2.2640002 nan
-0.33266222 -0.92833024 2.2620001 nan
-0.32765451 -0.93161684 2.2700002 nan
-0.32076216 -0.92956811 2.2650001 nan
-0.31486928 -0.93039262 2.2670002 nan
-0.30842087 -0.9295755 2.2650001 nan
-0.30251712 -0.93040019 2.2670002 nan
-0.29542601 -0.9275313 2.26 nan
-0.28914097 -0.9271251 2.2590001 nan
-0.28323716 -0.92795014 2.2610002 nan
-0.27732244 -0.92877525 2.263 nan
-0.27115715 -0.92877966 2.263 nan
-0.26510891 -0.92919469 2.2640002 nan
-0.25882646 -0.92878878 2.263 nan
-0.25254938 -0.92838293 2.2620001 nan
-0.24616876 -0.92756671 2.26 nan
-0.24033 -0.92880261 2.263 nan
-0.23416443 -0.92880732 2.263 nan
-0.22830102 -0.93004334 2.266 nan
-0.22173505 -0.92840624 2.2620001 nan
-0.2153814 -0.92759001 2.26 nan
-0.20903857 -0.92677385 2.2580001 nan
-0.20288628 -0.92677844 2.2580001 nan
-0.19690816 -0.92760384 2.26 nan
-0.19083472 -0.92801887 2.2610002 nan
-0.18483736 -0.92884403 2.263 nan
-0.17875013 -0.92925894 2.2640002 nan
-0.17258114 -0.92926335 2.2640002 nan
-0.16619155 -0.92803615 2.2610002 nan
-0.15981825 -0.92680895 2.2580001 nan
-0.15366539 -0.92681301 2.2580001 nan
-0.14757776 -0.92722726 2.2590001 nan
-0.14142206 -0.92723113 2.2590001 nan
-0.13514651 -0.92641395 2.2570002 nan
-0.12876749 -0.92477566 2.253 nan
-0.12235576 -0.92272675 2.2480001 nan
-0.11602295 -0.92108828 2.2440002 nan
-0.10980982 -0.92027044 2.2420001 nan
-0.10351502 -0.91863155 2.2380002 nan
-0.087236807 -0.87758988 2.138 nan
-0.078821011 -0.84968013 2.0700002 -1.7814251e+38
-0.072472714 -0.84147286 2.0500002 -1.8613865e+38
-0.066527024 -0.83695966 2.039 -2.1148767e+38
-0.060790773 -0.83449864 2.033 -2.1014278e+38
-0.055114366 -0.83244795 2.0280001 -2.1681498e+38
-0.049611889 -0.83285999 2.029 -2.3149896e+38
-0.04406048 -0.83245093 2.0280001 -2.2883008e+38
-0.038495496 -0.83163118 2.026 -2.2749564e+38
-0.032973938 -0.83163232 2.026 -2.3016454e+38
-0.027493011 -0.83286464 2.029 -2.2617164e+38
-0.022006543 -0.83450735 2.033 -2.1949429e+38
-0.016473958 -0.8349185 2.0340002 -2.2483207e+38
-0.010919792 -0.83409786 2.0320001 -2.2081833e+38
-0.0053818161 -0.83409804 2.0320001 -2.1948386e+38
0.00015623809 -0.8345086 2.033 -2.114668e+38
0.0057025459 -0.83532947 2.0350001 -2.1013236e+38
0.011254223 -0.83573973 2.036 -2.1147193e+38
0.016827852 -0.83697075 2.039 -2.2081301e+38
0.022428799 -0.83861202 2.043 -2.2748517e+38
0.028024131 -0.83943236 2.0450001 -2.3147811e+38
0.033400334 -0.83450556 2.033 -2.4081402e+38
0.037638467 -0.80659199 1.9650002 -2.1679926e+38
0.040937059 -0.76800573 1.8710001 -2.6350464e+38
0.045568641 -0.76020533 1.8520001 -2.4482761e+38
0.050561257 -0.75938296 1.8500001 -2.4216388e+38
0.055572994 -0.75897092 1.8490001 -2.4615675e+38
0.060612027 -0.75896925 1.8490001 -2.4615675e+38
0.065722041 -0.75978827 1.8510001 -2.4881517e+38
0.070804685 -0.76019681 1.8520001 -2.5682181e+38
