# .PCD v0.7 - Point Cloud Data file format
VERSION 0.7
FIELDS x y z rgb
SIZE 4 4 4 4
TYPE F F F F
COUNT 1 1 1 1
WIDTH 1018
HEIGHT 1
VIEWPOINT 0 0 0 1 0 0 0
POINTS 1018
DATA ascii
0.089011431 0.80175471 1.812 -2.3951605e+38
0.0940006 0.80219698 1.8130001 -2.2217354e+38
0.099213518 0.80440921 1.8180001 -2.1416689e+38
0.10445369 0.80662149 1.8230001 -2.3551798e+38
0.10978113 0.80927622 1.8290001 -2.3819729e+38
0.11532951 0.81325841 1.8380001 -2.10174e+38
0.12020676 0.81237352 1.8360001 -2.7021857e+38
0.12493671 0.81060368 1.8320001 -2.59543e+38
0.1297158 0.80927634 1.8290001 -2.4353489e+38
0.13462585 0.80883402 1.8280001 -2.3819195e+38
0.14197433 0.82255077 1.8590001 -2.6488081e+38
-0.031974711 0.86410505 1.9650002 -2.6352553e+38
-0.026390126 0.85662943 1.9480001 -3.1690829e+38
-0.020714207 0.84167814 1.914 nan
-0.014964446 0.81265485 1.848 -2.6620997e+38
-0.0099504599 0.81441396 1.8520001 -2.7821996e+38
-0.0048776008 0.81001657 1.8420001 -2.4085047e+38
0.00014122335 0.80825752 1.8380001 -2.2083386e+38
0.0051354468 0.80605876 1.8330001 -2.1815458e+38
0.010058209 0.80034202 1.8200001 -2.288301e+38
0.014860618 0.7919867 1.8010001 -2.2081831e+38
0.019691195 0.78890836 1.794 -2.1415653e+38
0.024538426 0.78758895 1.7910001 -2.1949956e+38
0.02945143 0.78846824 1.7930001 -1.9680892e+38
0.034260429 0.78670907 1.789 -1.9814338e+38
0.039157007 0.78714859 1.7900001 -2.0748447e+38
0.044132829 0.78890729 1.794 -2.0615003e+38
0.049130443 0.79066604 1.7980001 -1.9947782e+38
0.054270055 0.79418379 1.8060001 -1.9813817e+38
0.059453245 0.79770142 1.8140001 -2.0212587e+38
0.064396046 0.79770106 1.8140001 -2.0479993e+38
0.069300607 0.79726094 1.8130001 -2.1013769e+38
0.074322566 0.79814005 1.8150001 -2.0479989e+38
0.079093374 0.7963807 1.8110001 -2.1414612e+38
0.084074371 0.79682004 1.812 -2.1547012e+38
0.08910995 0.79769915 1.8140001 -2.3282827e+38
0.094467491 0.80121684 1.8220001 -2.1282209e+38
0.099377476 0.80077666 1.8210001 -2.0482585e+38
0.10433932 0.80077636 1.8210001 -2.0348624e+38
0.10930115 0.800776 1.8210001 -2.2350802e+38
0.1148277 0.8047334 1.83 -2.2083914e+38
0.11974859 0.80429339 1.8290001 -2.4485902e+38
0.12527779 0.80781108 1.8370001 -2.3418867e+38
0.13063782 0.8100096 1.8420001 -2.3418342e+38
0.13690886 0.81748509 1.8590001 -2.3151454e+38
0.14182153 0.81660551 1.8570001 -2.4753308e+38
-0.037063301 0.85263854 1.9510001 -2.528553e+38
-0.031454239 0.8447724 1.9330001 -2.8620573e+38
-0.025699414 0.82903975 1.8970001 -2.9287793e+38
-0.020270644 0.8185513 1.8730001 -2.662047e+38
-0.015037442 0.81155896 1.8570001 -2.3819187e+38
-0.0099451654 0.80893695 1.8510001 -2.4219004e+38
-0.0049200067 0.81199616 1.858 -2.4619338e+38
0.00014230015 0.80937403 1.8520001 -2.3284898e+38
0.0051186774 0.79844832 1.8270001 -2.1548569e+38
0.010047235 0.79451501 1.8180001 -2.221579e+38
0.014835981 0.78577441 1.7980001 -2.0880834e+38
0.01965842 0.78271508 1.7910001 -2.1148767e+38
0.024483807 0.7809667 1.7870001 -2.0348112e+38
0.029533787 0.78577381 1.7980001 -1.9414006e+38
0.034547955 0.7883957 1.8040001 -1.9147118e+38
0.039507303 0.78926939 1.8060001 -2.0214155e+38
0.04447756 0.79014313 1.8080001 -1.9947267e+38
0.049349394 0.78926861 1.8060001 -1.9947782e+38
0.054390632 0.7910164 1.8100001 -1.9947261e+38
0.05942088 0.79232699 1.8130001 -2.0613437e+38
0.064360969 0.79232651 1.8130001 -2.0880325e+38
0.069339283 0.79276299 1.8140001 -2.1146166e+38
0.074282072 0.7927624 1.8140001 -2.0745834e+38
0.079268537 0.79319882 1.8150001 -2.1146682e+38
0.08412125 0.79232424 1.8130001 -2.1547012e+38
0.089503415 0.7962569 1.8220001 -2.2214232e+38
0.094675377 0.79800445 1.8260001 -2.141461e+38
0.099814549 0.79931486 1.8290001 -2.0214656e+38
0.10428248 0.79538107 1.8200001 -1.9681407e+38
0.10900149 0.79363245 1.8160001 -2.0482068e+38
0.11401241 0.79406875 1.817 -1.9548478e+38
0.11883239 0.79319412 1.8150001 -2.1149805e+38
0.12445981 0.79756391 1.825 -2.1550133e+38
0.13078003 0.80586672 1.8440001 -2.1683569e+38
0.13683555 0.8119846 1.858 -2.1950457e+38
0.14281462 0.81722838 1.8700001 -2.2083386e+38
0.14941277 0.8255313 1.8890001 -2.3551794e+38
-0.036512747 0.83473593 1.9220001 -3.2626507e+38
-0.030803658 0.82214147 1.8930001 -3.115861e+38
-0.025320342 0.8117184 1.8690001 -2.3150924e+38
-0.020195089 0.81041574 1.8660001 -2.1817526e+38
-0.015069988 0.80824435 1.8610001 -2.3018008e+38
-0.0099828765 0.80694157 1.858 -2.368523e+38
-0.0048882812 0.80172998 1.8460001 -2.3951603e+38
0.00014022701 0.79260957 1.825 -2.3017495e+38
0.005065497 0.78522635 1.8080001 -2.2483205e+38
0.0099533862 0.78218609 1.8010001 -2.2216317e+38
0.014827881 0.78044873 1.7970001 -2.0614994e+38
0.019614713 0.7761054 1.7870001 -2.0481556e+38
0.024497759 0.77653956 1.7880001 -1.9947267e+38
0.029566931 0.78175086 1.8000001 -1.9546935e+38
0.0346632 0.78609365 1.8100001 -1.9280047e+38
0.039595194 0.78609318 1.8100001 -1.9680379e+38
0.044527184 0.78609276 1.8100001 -1.9680379e+38
0.049377188 0.78478932 1.807 -2.0080705e+38
0.054391138 0.78609174 1.8100001 -2.0479993e+38
0.059421428 0.78739405 1.8130001 -2.127961e+38
0.064468056 0.78869635 1.8160001 -2.127961e+38
0.069339886 0.78782701 1.8140001 -2.1412008e+38
0.074159868 0.7865234 1.8110001 -2.1545969e+38
0.079181857 0.7873913 1.8130001 -2.1945259e+38
0.084214732 0.78825915 1.8150001 -2.2744877e+38
0.089504115 0.79129845 1.8220001 -2.3279695e+38
0.094779789 0.79390347 1.8280001 -2.2612479e+38
0.10008814 0.79650843 1.8340001 -2.1279081e+38
0.10468431 0.79346752 1.8270001 -2.0479993e+38
0.1089422 0.78825504 1.8150001 -2.0214147e+38
0.11382488 0.78781986 1.8140001 -1.994778e+38
0.11824384 0.78434461 1.8060001 -2.141618e+38
0.12371032 0.78781813 1.8140001 -2.1282732e+38
0.12929134 0.79172605 1.8230001 -2.1282209e+38
0.13639432 0.80431992 1.8520001 -2.1948386e+38
0.14205153 0.8077935 1.8600001 -2.1815458e+38
0.14830598 0.81430709 1.8750001 -2.1683054e+38
0.15578769 0.82690096 1.904 -2.3551271e+38
-0.042228322 0.83900321 1.9440001 nan
-0.036114246 0.82044548 1.9010001 -3.0491398e+38
-0.030397221 0.8062036 1.868 -2.8489214e+38
-0.025225822 0.80361444 1.8620001 -2.4485892e+38
-0.020173695 0.80447793 1.8640001 -2.3418863e+38
-0.015045883 0.8018887 1.858 -2.2483718e+38
-0.0099346461 0.79800457 1.8490001 -2.2483718e+38
-0.0048539178 0.79109931 1.8330001 -2.2083388e+38
0.00013946042 0.78333074 1.8150001 -2.1683056e+38
0.0050459495 0.7772885 1.8010001 -2.1015321e+38
0.0099590383 0.77771997 1.802 -2.061499e+38
0.014861072 0.77728826 1.8010001 -2.0214147e+38
0.019746676 0.77642483 1.7990001 -2.0214668e+38
0.024607673 0.77512974 1.7960001 -1.9680379e+38
0.029616578 0.7781505 1.8030001 -1.9413491e+38
0.034759376 0.78332907 1.8150001 -1.9280047e+38
0.039748807 0.78419179 1.817 -1.9280047e+38
0.04474913 0.78505439 1.8190001 -2.0081226e+38
0.049514405 0.78203261 1.812 -2.1147213e+38
0.054481927 0.78246355 1.8130001 -2.127961e+38
0.059487656 0.78332603 1.8150001 -2.1545452e+38
0.064575285 0.78505164 1.8190001 -2.1945784e+38
0.069417112 0.78375608 1.8160001 -2.2078703e+38
0.07424257 0.78246033 1.8130001 -2.207766e+38
0.079270042 0.78332257 1.8150001 -2.3011765e+38
0.08449401 0.78591114 1.8210001 -2.3678983e+38
0.089750648 0.78849959 1.8270001 -2.4480163e+38
0.094832569 0.78936177 1.8290001 -2.3945873e+38
0.099925376 0.7902239 1.8310001 -2.2477993e+38
0.10468527 0.78849643 1.8270001 -2.0878236e+38
0.10918326 0.7850427 1.8190001 -2.047895e+38
0.11395136 0.78374684 1.8160001 -2.0080703e+38
0.11870312 0.78245103 1.8130001 -2.0881367e+38
0.12391588 0.78417617 1.817 -2.048155e+38
0.12907952 0.78546983 1.8200001 -2.0748434e+38
0.13573246 0.79539496 1.8430001 -2.1281166e+38
0.14136513 0.79884648 1.8510001 -2.1814415e+38
0.14712046 0.80272949 1.8600001 -2.2215788e+38
0.15292484 0.80661261 1.8690001 -2.3684188e+38
-0.041598972 0.8212809 1.9150001 -2.7822517e+38
-0.035639826 0.80455571 1.876 -2.5421041e+38
-0.030218668 0.7964077 1.8570001 -2.3686268e+38
-0.025050072 0.79297721 1.8490001 -2.1950979e+38
-0.020054942 0.79469305 1.853 -2.1283762e+38
-0.014876049 0.78783149 1.8370001 -2.2217358e+38
-0.0098488247 0.78611618 1.8330001 -2.1016361e+38
-0.0048381016 0.78354311 1.8270001 -2.0482068e+38
0.00013961617 0.77925438 1.817 -2.0615516e+38
0.0050740424 0.77668118 1.8110001 -2.0214668e+38
0.0099923471 0.77539444 1.8080001 -2.0214668e+38
0.01495206 0.77710962 1.812 -1.9947782e+38
0.019867711 0.77625161 1.8100001 -2.0348114e+38
0.024758752 0.77496475 1.807 -2.0080711e+38
0.029649863 0.77410656 1.8050001 -1.9546935e+38
0.034702428 0.77710807 1.812 -1.9813302e+38
0.039727505 0.77882302 1.8160001 -1.9813817e+38
0.044675965 0.77882236 1.8160001 -2.0613437e+38
0.049515102 0.77710611 1.812 -2.2078186e+38
0.054452632 0.77710533 1.812 -2.2744881e+38
0.059521258 0.77881998 1.8160001 -2.2477989e+38
0.064576156 0.78010565 1.8190001 -2.3145207e+38
0.069570936 0.78053349 1.8200001 -2.3678977e+38
0.074489258 0.78010362 1.8190001 -2.3545531e+38
0.079489455 0.78053135 1.8200001 -2.4211705e+38
0.084587887 0.7818169 1.8230001 -2.5412174e+38
0.089653514 0.78267342 1.825 -2.5812506e+38
0.094781868 0.78395867 1.8280001 -2.5012373e+38
0.09981741 0.78438628 1.8290001 -2.4079309e+38
0.10491568 0.78524268 1.8310001 -2.1677328e+38
0.10948461 0.78223938 1.8240001 -2.1010633e+38
0.11458011 0.78309572 1.8260001 -2.0612394e+38
0.11929366 0.78137887 1.8220001 -2.0214147e+38
0.12459915 0.78352177 1.8270001 -2.0481035e+38
0.12886803 0.77923173 1.817 -2.0614994e+38
0.13514455 0.78694969 1.835 -2.0613948e+38
0.14060266 0.7895214 1.8410001 -2.1814942e+38
0.14601435 0.7916643 1.8460001 -2.288301e+38
0.1512078 0.79252052 1.848 -2.2216303e+38
0.15784946 0.80066741 1.8670001 -2.448485e+38
-0.046573501 0.81181401 1.9050001 -2.9023518e+38
-0.040622134 0.79689956 1.8700001 -2.6620997e+38
-0.035241466 0.79050797 1.8550001 -2.7155814e+38
-0.030007625 0.78582084 1.8440001 -2.6754965e+38
-0.025050497 0.78795218 1.8490001 -2.1417202e+38
-0.019871291 0.78241259 1.8360001 -2.088343e+38
-0.014771026 0.77729905 1.8240001 -2.0749473e+38
-0.0098006353 0.77729934 1.8240001 -2.0749473e+38
-0.004832888 0.77772558 1.825 -2.0482072e+38
0.0001402333 0.77772564 1.825 -1.994778e+38
0.0050993455 0.77559483 1.8200001 -1.9680894e+38
0.010064367 0.77602088 1.8210001 -1.9814338e+38
0.015001828 0.77474213 1.8180001 -2.0615003e+38
0.019944888 0.77431571 1.817 -1.9947782e+38
0.02482768 0.77218449 1.812 -1.9680894e+38
0.029716073 0.77090561 1.8090001 -1.9947261e+38
0.03474132 0.77303582 1.8140001 -1.9680373e+38
0.03983755 0.77601814 1.8210001 -2.0613437e+38
0.044824313 0.77644354 1.8220001 -2.2212676e+38
0.049707204 0.77516431 1.8190001 -2.2344549e+38
0.054513626 0.77303261 1.8140001 -2.3811906e+38
0.059554983 0.77431005 1.817 -2.4478597e+38
0.06454169 0.77473521 1.8180001 -2.4612041e+38
0.069648489 0.77643859 1.8220001 -2.4877882e+38
0.074613266 0.7764374 1.8220001 -2.514477e+38
0.07957802 0.77643615 1.8220001 -2.5812506e+38
0.084681958 0.77771324 1.825 -2.634524e+38
0.08970397 0.77813804 1.8260001 -2.6478684e+38
0.094835103 0.77941495 1.8290001 -2.6079394e+38
0.099818826 0.77941346 1.8290001 -2.5145817e+38
0.10491714 0.78026426 1.8310001 -2.2344544e+38
0.10984623 0.77983642 1.83 -2.1411483e+38
0.11489537 0.78026104 1.8310001 -2.1146166e+38
0.12001541 0.7811116 1.8330001 -2.0880325e+38
0.1246689 0.77897918 1.8280001 -2.0214147e+38
0.12894052 0.7747162 1.8180001 -2.0614994e+38
0.13433599 0.77727127 1.8240001 -2.101428e+38
0.13984051 0.78025246 1.8310001 -2.1681498e+38
0.14530407 0.78280747 1.8370001 -2.1948902e+38
0.15096392 0.78621477 1.845 -2.3150411e+38
0.15717466 0.79217899 1.8590001 -2.4351406e+38
0.16424711 0.80197823 1.8820001 -2.4752782e+38
-0.051982891 0.81002456 1.9130001 -2.9022992e+38
-0.045620885 0.79012424 1.8660001 -2.7152688e+38
-0.040058091 0.78080958 1.8440001 -2.2348702e+38
-0.034881167 0.77742285 1.8360001 -2.3150411e+38
-0.029764097 0.77445948 1.8290001 -2.2884051e+38
-0.024888396 0.77784747 1.8370001 -2.248372e+38
-0.019785088 0.77403706 1.8280001 -2.2750093e+38
-0.014763213 0.77192026 1.8230001 -2.2349761e+38
-0.0097470926 0.76810962 1.8140001 -2.0615512e+38
-0.0048117959 0.76937997 1.817 -2.0348112e+38
0.0001400055 0.77149725 1.8220001 -1.9947782e+38
0.0051218593 0.77403772 1.8280001 -1.954745e+38
0.010114305 0.77488452 1.83 -1.9947782e+38
0.015010371 0.77022654 1.8190001 -2.0348114e+38
0.019923318 0.7685324 1.8150001 -2.0214149e+38
0.024841862 0.76768506 1.8130001 -1.9947259e+38
0.029765919 0.76726103 1.812 -2.0479993e+38
0.034761127 0.76853079 1.8150001 -2.0745834e+38
0.039794549 0.77022368 1.8190001 -2.1678371e+38
0.044800553 0.77106971 1.8210001 -2.3011769e+38
0.049653478 0.76937509 1.817 -2.4877886e+38
0.054544684 0.76852709 1.8150001 -2.5944392e+38
0.059556074 0.76937288 1.817 -2.6877454e+38
0.064542852 0.76979518 1.8180001 -2.7944481e+38
0.069535062 0.7702173 1.8190001 -2.6610041e+38
0.074614592 0.77148628 1.8220001 -2.7010373e+38
0.079666764 0.77233166 1.8240001 -2.7143817e+38
0.084776223 0.77360046 1.8270001 -2.8211365e+38
0.089705482 0.77317536 1.8260001 -2.7011411e+38
0.094836682 0.77444404 1.8290001 -2.6478682e+38
0.09987504 0.77486569 1.83 -2.5945435e+38
0.10497613 0.77571082 1.8320001 -2.3011765e+38
0.10996803 0.77570897 1.8320001 -2.2344549e+38
0.11495989 0.77570707 1.8320001 -2.1278564e+38
0.12001722 0.77612853 1.8330001 -2.0613437e+38
0.12480713 0.77485633 1.83 -2.0346549e+38
0.12936792 0.77231383 1.8240001 -2.0479993e+38
0.1344115 0.77273524 1.825 -2.0880321e+38
0.13968967 0.77442694 1.8290001 -2.1415653e+38
0.14498957 0.7761184 1.8330001 -2.1815985e+38
0.15072037 0.77992713 1.8420001 -2.3016452e+38
0.15666927 0.78458256 1.853 -2.2616635e+38
0.16389996 0.79516584 1.8780001 -2.6354111e+38
-0.051032886 0.79010326 1.8780001 -2.6885796e+38
-0.044986166 0.77411711 1.84 -2.9020905e+38
-0.039711352 0.76906937 1.8280001 -2.3684188e+38
-0.034672916 0.76780808 1.825 -2.2215788e+38
-0.029667089 0.76696742 1.8230001 -2.1548567e+38
-0.024699247 0.76696801 1.8230001 -2.0348615e+38
-0.019709745 0.76612711 1.8210001 -2.1415653e+38
-0.014747334 0.76612747 1.8210001 -2.1148767e+38
-0.0097634215 0.76444489 1.817 -2.0748439e+38
-0.0048039556 0.76318294 1.8140001 -1.9814338e+38
0.00013993165 0.76612794 1.8210001 -1.9680894e+38
0.0051275739 0.76991439 1.83 -1.954745e+38
0.010131103 0.77117634 1.8330001 -1.9814338e+38
0.015027197 0.76612747 1.8210001 -2.0747925e+38
0.019956676 0.76486492 1.8180001 -2.0881367e+38
0.024883499 0.76402301 1.8160001 -2.0346549e+38
0.029848691 0.7644431 1.817 -2.1146166e+38
0.034819324 0.76486307 1.8180001 -2.1412008e+38
0.039817266 0.76570368 1.8200001 -2.2477993e+38
0.044801492 0.76612341 1.8210001 -2.3678462e+38
0.04965451 0.76443958 1.817 -2.5944392e+38
0.054635968 0.76485908 1.8180001 -2.6343678e+38
0.059590079 0.76485789 1.8180001 -2.7410701e+38
0.064615168 0.76569796 1.8200001 -2.8344813e+38
0.069498226 0.76485515 1.8180001 -2.7811037e+38
0.074575119 0.76611573 1.8210001 -2.8077921e+38
0.079580985 0.76653492 1.8220001 -2.901203e+38
0.084638663 0.76737458 1.8240001 -2.8211365e+38
0.089658074 0.76779348 1.825 -2.8211883e+38
0.094786622 0.76905382 1.8280001 -2.7678632e+38
0.099876903 0.76989329 1.83 -2.6478682e+38
0.10497805 0.77073276 1.8320001 -2.4211709e+38
0.11009006 0.77157205 1.8340001 -2.3278651e+38
0.11496192 0.77072853 1.8320001 -2.2211104e+38
0.12008477 0.77156776 1.8340001 -2.1146166e+38
0.12515025 0.77198619 1.835 -2.0346549e+38
0.1300084 0.77114248 1.8330001 -2.0346549e+38
0.13478194 0.76987809 1.83 -2.0614479e+38
0.13976823 0.76987576 1.83 -2.0614994e+38
0.1450709 0.77155614 1.8340001 -2.0748434e+38
0.15064079 0.77449864 1.8410001 -2.1148765e+38
0.15650246 0.77870321 1.8510001 -2.154961e+38
0.16372769 0.78921801 1.876 -2.4619338e+38
-0.062835522 0.8050648 1.9260001 -2.8889015e+38
-0.056510601 0.7900182 1.8900001 -2.8620042e+38
-0.050707962 0.77998757 1.8660001 -2.2749031e+38
-0.044889405 0.76744872 1.8360001 -2.4215877e+38
-0.039668825 0.76326972 1.8260001 -2.1147193e+38
-0.034787726 0.76536065 1.8310001 -2.19489e+38
-0.029732885 0.76368946 1.8270001 -2.2616122e+38
-0.024564337 0.75783801 1.8130001 -2.1948386e+38
-0.019569501 0.75574851 1.8080001 -2.0614988e+38
-0.014707189 0.75909305 1.8160001 -2.061499e+38
-0.0097690262 0.7599293 1.8180001 -2.0081218e+38
-0.0048252554 0.76160151 1.8220001 -2.0081226e+38
0.00014008865 0.76201957 1.8230001 -1.9680379e+38
0.0051389034 0.76661754 1.8340001 -1.9680894e+38
0.010131343 0.76619935 1.8330001 -1.9813817e+38
0.015060563 0.76285505 1.825 -2.0481035e+38
0.019990079 0.76118255 1.8210001 -2.1280657e+38
0.024952598 0.76118201 1.8210001 -2.0613433e+38
0.0299151 0.76118129 1.8210001 -2.1011676e+38
0.034820136 0.75992662 1.8180001 -2.1945259e+38
0.039730679 0.75908965 1.8160001 -2.3412097e+38
0.044679511 0.75908864 1.8160001 -2.5412192e+38
0.049600989 0.75866944 1.8150001 -2.6612128e+38
0.054637216 0.75992221 1.8180001 -2.8211369e+38
0.05952587 0.75908488 1.8160001 -2.8077921e+38
0.064510107 0.7595014 1.817 -2.9545806e+38
0.069385089 0.75866389 1.8150001 -2.9812698e+38
0.074494861 0.76033419 1.8190001 -2.954581e+38
0.079451673 0.76033241 1.8190001 -2.954581e+38
0.084501274 0.76116657 1.8210001 -2.9545806e+38
0.089561731 0.76200056 1.8230001 -2.8479296e+38
0.094736762 0.7636705 1.8270001 -2.8614302e+38
0.099769808 0.76408631 1.8280001 -2.7413833e+38
0.1049802 0.76575607 1.8320001 -2.5013931e+38
0.11003224 0.76617169 1.8330001 -2.3679496e+38
0.11508971 0.76658738 1.8340001 -2.3011763e+38
0.12008709 0.76658493 1.8340001 -2.1278564e+38
0.12522085 0.76741844 1.8360001 -2.1012722e+38
0.13057826 0.7695058 1.8410001 -2.1013769e+38
0.13559459 0.76950318 1.8410001 -1.9947259e+38
0.14099278 0.77159041 1.8460001 -1.994778e+38
0.14578533 0.77033377 1.8430001 -1.9681407e+38
0.15072519 0.76991308 1.8420001 -2.0214658e+38
0.15608229 0.77158225 1.8460001 -2.0881877e+38
0.16250847 0.77826715 1.8620001 -2.1683056e+38
0.17163183 0.79707295 1.9070001 -2.3818159e+38
-0.062739201 0.79859018 1.9230001 -2.7953864e+38
-0.056362506 0.78281093 1.8850001 -2.528394e+38
-0.050519001 0.77201486 1.8590001 -2.2347656e+38
-0.045110587 0.76620209 1.845 -2.1547525e+38
-0.040017433 0.76495749 1.8420001 -2.1680971e+38
-0.034997609 0.76495844 1.8420001 -2.1281166e+38
-0.029847562 0.76163697 1.8340001 -2.2749051e+38
-0.024524318 0.75167078 1.8100001 -2.1147722e+38
-0.019537531 0.74959493 1.8050001 -2.0615001e+38
-0.014658974 0.75167179 1.8100001 -1.9814338e+38
-0.0097907735 0.75665569 1.8220001 -1.954745e+38
-0.004835974 0.75831693 1.8260001 -1.9546935e+38
0.00014055338 0.75956297 1.8290001 -1.9680379e+38
0.0051362342 0.76122397 1.8330001 -1.9679858e+38
0.010120548 0.76039314 1.8310001 -2.0479476e+38
0.01506095 0.75790113 1.825 -2.1013769e+38
0.020001572 0.7566548 1.8220001 -2.1546499e+38
0.024939533 0.75582361 1.8200001 -2.1679943e+38
0.029948723 0.75706881 1.8230001 -2.2079228e+38
0.034840174 0.75540674 1.8190001 -2.221319e+38
0.039753567 0.75457519 1.817 -2.4746542e+38
0.044631429 0.7533282 1.8140001 -2.5413758e+38
0.049574912 0.75332701 1.8140001 -2.6078879e+38
0.054518361 0.75332564 1.8140001 -2.7946568e+38
0.059461787 0.75332421 1.8140001 -3.0079586e+38
0.064440683 0.75373787 1.8150001 -3.0880251e+38
0.069425009 0.75415146 1.8160001 -3.1013695e+38
0.074373782 0.75414956 1.8160001 -3.1013695e+38
0.079278857 0.75373238 1.8150001 -3.0080112e+38
0.084271245 0.75414568 1.8160001 -2.8881719e+38
0.089465566 0.75621992 1.8210001 -2.9282051e+38
0.094738953 0.75870937 1.8270001 -2.8216584e+38
0.099881262 0.75995278 1.83 -2.7282476e+38
0.10492526 0.76036566 1.8310001 -2.594856e+38
0.11015476 0.76202422 1.835 -2.5013937e+38
0.1152805 0.76285219 1.8370001 -2.3278651e+38
0.12048256 0.76409531 1.84 -2.1679413e+38
0.12556452 0.76450777 1.8410001 -2.1146682e+38
0.13079377 0.76575077 1.8440001 -2.0481035e+38
0.13618658 0.76782417 1.8490001 -2.0080703e+38
0.14130114 0.76823658 1.8500001 -1.9947782e+38
0.14626284 0.76781827 1.8490001 -1.9814338e+38
0.15130088 0.76781523 1.8490001 -2.0081224e+38
0.15659255 0.76905793 1.8520001 -2.061499e+38
0.16268601 0.7740379 1.8640001 -2.1682541e+38
0.17001484 0.78441602 1.8890001 -2.1817025e+38
-0.068370312 0.79790723 1.9340001 -2.8086797e+38
-0.06218623 0.78635716 1.9060001 -3.1156006e+38
-0.056005217 0.77274406 1.8730001 -2.7152688e+38
-0.050438844 0.76573175 1.8560001 -2.381607e+38
-0.045307424 0.76449537 1.853 -2.1680971e+38
-0.040214062 0.76367152 1.8510001 -2.1281166e+38
-0.035093568 0.76202226 1.8470001 -2.141461e+38
-0.029880939 0.75748491 1.8360001 -2.2215275e+38
-0.024606299 0.74923426 1.8160001 -2.061499e+38
-0.019646319 0.74882227 1.8150001 -2.0214662e+38
-0.014716075 0.7496478 1.817 -1.9680894e+38
-0.009817915 0.75377399 1.8270001 -1.9546935e+38
-0.004849351 0.75542456 1.8310001 -1.9280049e+38
0.00014094153 0.75666231 1.8340001 -1.9546935e+38
0.005150388 0.75831258 1.8380001 -1.9813817e+38
0.010131886 0.75624943 1.8330001 -2.061292e+38
0.01509438 0.75459874 1.8290001 -2.114617e+38
0.020002127 0.75171024 1.8220001 -2.127961e+38
0.024940223 0.75088441 1.8200001 -2.1545456e+38
0.029900262 0.75088358 1.8200001 -2.1278564e+38
0.034802824 0.74964499 1.817 -2.1811815e+38
0.039710894 0.74881881 1.8150001 -2.1810772e+38
0.044608042 0.74799246 1.8130001 -2.1810768e+38
0.049576253 0.74840373 1.8140001 -2.32776e+38
0.054519836 0.7484023 1.8140001 -2.6879543e+38
0.059430599 0.7479881 1.8130001 -2.9412891e+38
0.064371385 0.74798638 1.8130001 -2.9947185e+38
0.069312148 0.74798447 1.8130001 -2.9813223e+38
0.07421191 0.74756992 1.812 -2.9146003e+38
0.079193555 0.74798054 1.8130001 -2.7145904e+38
0.08427342 0.74921602 1.8160001 -2.4478593e+38
0.089418717 0.75086391 1.8200001 -2.1944723e+38
0.094689481 0.75333685 1.8260001 -2.1944723e+38
0.099883743 0.75498456 1.83 -2.1944723e+38
0.10492785 0.75539446 1.8310001 -2.381294e+38
0.11009741 0.75662947 1.8340001 -2.4480163e+38
0.1152205 0.75745171 1.8360001 -2.3945871e+38
0.12055089 0.75951147 1.8410001 -2.2346634e+38
0.12584029 0.7611587 1.845 -2.141357e+38
0.13108048 0.76239324 1.848 -2.0348106e+38
0.13641062 0.76404035 1.8520001 -2.0348112e+38
0.14138062 0.76362449 1.8510001 -2.0081226e+38
0.14674063 0.76527143 1.8550001 -2.0348114e+38
0.15171325 0.7648555 1.8540001 -2.021467e+38
0.15710312 0.7665022 1.858 -1.9947774e+38
0.16338755 0.77227432 1.8720001 -2.0748434e+38
0.17037825 0.78093421 1.8930001 -2.0348624e+38
0.17683421 0.78670603 1.9070001 -2.5953791e+38
-0.067594513 0.78364247 1.9120001 -2.9021435e+38
-0.061339706 0.77052903 1.8800001 -2.7019774e+38
-0.055857323 0.76561242 1.868 -2.048206e+38
-0.050494671 0.7615155 1.858 -2.0748432e+38
-0.04521095 0.75782824 1.8490001 -2.1148767e+38
-0.040128339 0.75700986 1.8470001 -2.0748434e+38
-0.0349616 0.75414187 1.84 -2.1015327e+38
-0.029898101 0.75291342 1.8370001 -2.1415144e+38
-0.02476963 0.74922544 1.8280001 -2.0214668e+38
-0.019787624 0.74922615 1.8280001 -1.9814338e+38
-0.014797509 0.74881685 1.8270001 -1.9680381e+38
-0.0098504508 0.75127631 1.8330001 -1.9147647e+38
-0.0048547927 0.75127661 1.8330001 -1.9146605e+38
0.00014125314 0.75332588 1.8380001 -1.9680379e+38
0.0051505421 0.75332588 1.8380001 -1.9947261e+38
0.010143244 0.75209606 1.835 -2.0746881e+38
0.015086577 0.74922669 1.8280001 -2.1545452e+38
0.019969787 0.74553734 1.8190001 -2.1144595e+38
0.024872446 0.74389726 1.8150001 -2.1276996e+38
0.029835433 0.74430627 1.8160001 -2.141044e+38
0.034803852 0.74471509 1.817 -2.2477993e+38
0.039755825 0.74471396 1.817 -2.22111e+38
0.044683162 0.74430281 1.8160001 -2.1810245e+38
0.049605031 0.74389154 1.8150001 -2.32776e+38
0.054491356 0.74307024 1.8130001 -2.4744438e+38
0.059432317 0.74306858 1.8130001 -2.914652e+38
0.06437324 0.74306673 1.8130001 -2.9413408e+38
0.069314115 0.74306476 1.8130001 -2.9278922e+38
0.07425496 0.74306262 1.8130001 -2.8345339e+38
0.079283141 0.74388009 1.8150001 -2.5277687e+38
0.084322162 0.74469739 1.817 -2.3411044e+38
0.089421183 0.74592453 1.8200001 -2.247798e+38
0.094432779 0.74633175 1.8210001 -2.1810766e+38
0.099558942 0.74755859 1.8240001 -2.2077654e+38
0.10458679 0.74796557 1.825 -2.1810766e+38
0.10980015 0.74960202 1.8290001 -2.154388e+38
0.11503522 0.75123823 1.8330001 -2.2612475e+38
0.12048851 0.75410402 1.84 -2.2746966e+38
0.12597989 0.75696963 1.8470001 -2.1280124e+38
0.13122562 0.7581957 1.8500001 -2.0348106e+38
0.13619301 0.75778252 1.8490001 -2.0481556e+38
0.14130768 0.75818884 1.8500001 -2.021467e+38
0.14690237 0.76105404 1.8570001 -2.0214155e+38
0.1519623 0.7610504 1.8570001 -1.9413491e+38
0.15710673 0.76145643 1.858 -1.9414006e+38
0.16365306 0.76841962 1.8750001 -2.0214668e+38
0.17047201 0.77620244 1.8940001 -2.1149292e+38
0.17628163 0.77906722 1.9010001 -2.1815985e+38
0.18222483 0.78234178 1.909 -2.3150941e+38
-0.074330583 0.79473889 1.9520001 nan
-0.067066282 0.77234834 1.8970001 -3.0889651e+38
-0.060950052 0.76054323 1.868 -2.0081727e+38
-0.055530123 0.7560665 1.8570001 -2.1283249e+38
-0.050142933 0.7511825 1.845 -2.0348628e+38
-0.044894483 0.74751973 1.8360001 -1.9814336e+38
-0.039716791 0.74426389 1.8280001 -1.994778e+38
-0.034962699 0.74915081 1.84 -2.0081224e+38
-0.029850217 0.74670905 1.8340001 -1.9814338e+38
-0.024797514 0.74508131 1.83 -1.9680894e+38
-0.019853204 0.74671066 1.8340001 -2.0080711e+38
-0.014878974 0.74793267 1.8370001 -1.9281091e+38
-0.0098883845 0.74915451 1.84 -1.9014203e+38
-0.0048840819 0.75078332 1.8440001 -1.9280049e+38
0.00014156508 0.74996912 1.8420001 -1.9680379e+38
0.0051563103 0.74915469 1.84 -2.0879808e+38
0.01013251 0.74630445 1.8330001 -2.114617e+38
0.015087056 0.7442683 1.8280001 -2.101115e+38
0.019970421 0.74060339 1.8190001 -2.3812433e+38
0.02488694 0.73938125 1.8160001 -2.5680646e+38
0.029819947 0.7389732 1.8150001 -2.5947534e+38
0.034804948 0.73978645 1.817 -2.5680646e+38
0.039778955 0.74019241 1.8180001 -2.5680123e+38
0.044709168 0.73978382 1.817 -2.4744972e+38
0.049579244 0.73856097 1.8140001 -2.5278215e+38
0.054523107 0.73855931 1.8140001 -2.634524e+38
0.059434146 0.7381503 1.8130001 -2.9145478e+38
0.064410716 0.73855543 1.8140001 -2.9278918e+38
0.069277994 0.73773903 1.812 -2.9679254e+38
0.074298173 0.73855108 1.8140001 -2.7010898e+38
0.0793292 0.73936301 1.8160001 -2.5811463e+38
0.084371082 0.74017471 1.8180001 -2.4612041e+38
0.089374684 0.74057925 1.8190001 -2.4346197e+38
0.09427996 0.74016929 1.8180001 -2.55472e+38
0.099343486 0.74098057 1.8200001 -2.5814088e+38
0.10447518 0.742199 1.8230001 -2.5814088e+38
0.10956311 0.7430101 1.825 -2.3545539e+38
0.11491293 0.7454496 1.8310001 -2.2077656e+38
0.12042636 0.74870318 1.8390001 -2.1946301e+38
0.12605153 0.75236374 1.848 -2.1947344e+38
0.13115823 0.75276732 1.8490001 -2.0348106e+38
0.13619663 0.75276357 1.8490001 -2.0214668e+38
0.1416169 0.75479537 1.8540001 -2.0080711e+38
0.14730169 0.75804847 1.8620001 -1.9814866e+38
0.15155695 0.75397331 1.8520001 -1.9014201e+38
0.1561805 0.75193369 1.8470001 -1.954745e+38
0.16173682 0.75437224 1.853 -1.9947782e+38
0.16858591 0.76251036 1.8730001 -2.0748434e+38
0.17526571 0.76942688 1.8900001 -2.1682541e+38
0.18165624 0.77471483 1.9030001 -2.1549612e+38
-0.073609471 0.78176028 1.9330001 -2.7421672e+38
-0.066432081 0.75992352 1.8790001 -2.3016981e+38
-0.0607889 0.75345463 1.863 -2.1416693e+38
-0.055502053 0.75062567 1.8560001 -2.0482068e+38
-0.050171774 0.7465831 1.8460001 -2.0081226e+38
-0.044578079 0.73728269 1.8230001 -1.9947782e+38
-0.040022299 0.74496853 1.8420001 -1.9546935e+38
-0.035020884 0.74537426 1.8430001 -1.9147647e+38
-0.0299326 0.74375755 1.8390001 -1.9281091e+38
-0.024866104 0.74214071 1.835 -1.9414535e+38
-0.019864697 0.74214154 1.835 -1.9414535e+38
-0.014887577 0.74335545 1.8380001 -1.9147647e+38
-0.0098994682 0.74497366 1.8420001 -1.8747315e+38
-0.0048921942 0.7469961 1.8470001 -1.9146605e+38
0.00014164673 0.74537849 1.8430001 -1.9413491e+38
0.0051536821 0.74376053 1.8390001 -2.1012726e+38
0.010121797 0.74052477 1.8310001 -2.1278564e+38
0.015054551 0.73769331 1.8240001 -2.4079317e+38
0.019971093 0.73567045 1.8190001 -2.487998e+38
0.024901479 0.73486084 1.817 -2.3945871e+38
0.029853808 0.73485994 1.817 -2.3812427e+38
0.03486358 0.73607212 1.8200001 -2.4479647e+38
0.039824039 0.73607081 1.8200001 -2.3811906e+38
0.04473526 0.73526049 1.8180001 -2.4078267e+38
0.049608219 0.73404562 1.8150001 -2.4743396e+38
0.054524899 0.73363936 1.8140001 -2.6343678e+38
0.059468877 0.73363745 1.8140001 -2.9277875e+38
0.064448319 0.73403978 1.8150001 -3.0078538e+38
0.069433175 0.734442 1.8160001 -2.9945096e+38
0.074464403 0.73524845 1.8180001 -2.8211369e+38
0.079506464 0.73605472 1.8200001 -2.6342635e+38
0.084559411 0.73686099 1.8220001 -2.3944821e+38
0.08952491 0.73685813 1.8220001 -2.3412089e+38
0.09438663 0.73604631 1.8200001 -2.3945871e+38
0.099291973 0.73563874 1.8190001 -2.4079315e+38
0.10436375 0.73644441 1.8210001 -2.5680638e+38
0.10956643 0.73805863 1.825 -2.6881634e+38
0.11497913 0.74088609 1.8320001 -2.5681159e+38
0.12049542 0.74411774 1.84 -2.1944212e+38
0.12585059 0.74613595 1.845 -2.2078703e+38
0.13109109 0.74734545 1.848 -2.0346549e+38
0.13620053 0.74774587 1.8490001 -1.9814338e+38
0.14185007 0.7509771 1.8570001 -1.9547979e+38
0.14698933 0.75137722 1.858 -1.9281091e+38
0.15139744 0.74813783 1.8500001 -1.9014203e+38
0.15593103 0.74570715 1.8440001 -1.9680379e+38
0.16113009 0.74651152 1.8460001 -1.9680894e+38
0.16742015 0.75216866 1.8600001 -2.0214662e+38
0.17230262 0.75135517 1.858 -2.1282209e+38
0.18080164 0.76590854 1.8940001 -2.3416271e+38
-0.072583787 0.76567215 1.9060001 -3.182533e+38
-0.066257589 0.75281972 1.8740001 -2.1148765e+38
-0.06052997 0.74518925 1.8550001 -1.968192e+38
-0.055264741 0.74237931 1.848 -2.0348628e+38
-0.050227888 0.74238116 1.848 -1.9947782e+38
-0.045191001 0.74238288 1.848 -1.9947267e+38
-0.039980251 0.73917061 1.84 -1.9413493e+38
-0.034946106 0.73877031 1.8390001 -1.9147647e+38
-0.029917384 0.7383697 1.8380001 -1.9147647e+38
-0.024921196 0.73877245 1.8390001 -1.9281091e+38
-0.019887058 0.73796988 1.8370001 -1.9014203e+38
-0.014888107 0.73837221 1.8380001 -1.9281091e+38
-0.0098783225 0.73837262 1.8380001 -1.9014203e+38
-0.0048923688 0.74198848 1.8470001 -1.9280049e+38
0.00014172864 0.74078339 1.8440001 -1.9813302e+38
0.0051594716 0.73957813 1.8410001 -2.127961e+38
0.010133215 0.73636401 1.8330001 -2.3146255e+38
0.015096357 0.73475665 1.8290001 -2.621442e+38
0.020037683 0.73314911 1.825 -2.341261e+38
0.024984594 0.73234481 1.8230001 -2.3145722e+38
0.029937023 0.73194212 1.8220001 -2.1677322e+38
0.034922287 0.7323426 1.8230001 -2.1410436e+38
0.039869212 0.73193949 1.8220001 -2.1943689e+38
0.044786047 0.73113459 1.8200001 -2.3277602e+38
0.049691953 0.73032945 1.8180001 -2.4610467e+38
0.054586913 0.72952414 1.8160001 -2.5275083e+38
0.059470944 0.7287187 1.8140001 -2.9678207e+38
0.064450547 0.72911811 1.8150001 -3.074576e+38
0.069435567 0.72951752 1.8160001 -3.0612316e+38
0.074589819 0.73152357 1.8210001 -2.8745146e+38
0.079640225 0.73232424 1.8230001 -2.4874751e+38
0.084747896 0.73352659 1.8260001 -2.434411e+38
0.089626171 0.73272026 1.8240001 -2.2477465e+38
0.094700925 0.73352045 1.8260001 -2.1810768e+38
0.099677347 0.73351711 1.8260001 -2.1410436e+38
0.10482565 0.7347188 1.8290001 -2.3278645e+38
0.10993019 0.73551863 1.8310001 -2.4746529e+38
0.11523387 0.73752344 1.8360001 -2.6347858e+38
0.1206302 0.7399298 1.8420001 -2.3545541e+38
0.12599096 0.7419343 1.8470001 -2.2078703e+38
0.13137889 0.74393868 1.8520001 -2.0479993e+38
0.13642567 0.74393445 1.8520001 -1.9680894e+38
0.14177792 0.7455368 1.8560001 -1.9281091e+38
0.14651901 0.74392569 1.8520001 -1.9281091e+38
0.15115635 0.74191266 1.8470001 -1.9014203e+38
0.15627377 0.74230975 1.848 -1.9546935e+38
0.16148382 0.74310845 1.8500001 -1.9814338e+38
0.16697475 0.74511206 1.8550001 -2.0348106e+38
0.17221463 0.74591053 1.8570001 -2.1549099e+38
0.17841995 0.75072569 1.8690001 -2.1549612e+38
-0.074071661 0.77606589 1.9450001 -3.2092214e+38
-0.066578224 0.75133014 1.8830001 -2.1817025e+38
-0.06076061 0.74295336 1.8620001 -2.021518e+38
-0.055296682 0.73776841 1.8490001 -1.9948295e+38
-0.050420005 0.74016446 1.8550001 -2.0348114e+38
-0.045217127 0.73777217 1.8490001 -1.9947267e+38
-0.039894823 0.73258668 1.8360001 -1.9546935e+38
-0.034776378 0.73019391 1.83 -1.9281091e+38
-0.029999889 0.73538238 1.8430001 -1.9147647e+38
-0.025098305 0.73897463 1.8520001 -1.8880759e+38
-0.020061022 0.73937452 1.853 -1.9014203e+38
-0.014945368 0.73618299 1.845 -1.8747315e+38
-0.0099055674 0.73538548 1.8430001 -1.9013161e+38
-0.004895201 0.7373808 1.848 -1.9279526e+38
0.00014181081 0.73618388 1.845 -2.0746881e+38
0.0051624682 0.73498672 1.8420001 -2.2612479e+38
0.01015571 0.7329914 1.8370001 -2.5013424e+38
0.015129941 0.73139483 1.8330001 -2.5013416e+38
0.020093331 0.73019707 1.83 -2.3812419e+38
0.025040355 0.7289992 1.8270001 -2.1810762e+38
0.030003864 0.72859913 1.8260001 -2.4078267e+38
0.034942739 0.72779983 1.8240001 -2.2876755e+38
0.039870694 0.72700047 1.8220001 -2.3676373e+38
0.044836923 0.72699881 1.8220001 -2.5677508e+38
0.049775787 0.72659796 1.8210001 -2.5675419e+38
0.054679099 0.72579801 1.8190001 -2.6342635e+38
0.059505895 0.72419977 1.8150001 -3.0077503e+38
0.064417385 0.72379851 1.8140001 -3.0611279e+38
0.069476306 0.72499299 1.817 -3.1145577e+38
0.074715398 0.72778344 1.8240001 -3.1145577e+38
0.079861514 0.72937655 1.8280001 -2.5942303e+38
0.084843732 0.72937351 1.8280001 -2.4209624e+38
0.089776739 0.72897142 1.8270001 -2.3676373e+38
0.094859831 0.72976601 1.8290001 -2.1809204e+38
0.10006294 0.73135853 1.8330001 -2.2876755e+38
0.10511584 0.73175389 1.8340001 -2.3943778e+38
0.1101741 0.73214906 1.835 -2.314311e+38
0.11530052 0.73294318 1.8370001 -2.5411659e+38
0.12063425 0.73493403 1.8420001 -2.5547194e+38
0.12599511 0.73692471 1.8470001 -2.2744877e+38
0.13145413 0.73931426 1.853 -2.0879278e+38
0.13643008 0.73891085 1.8520001 -1.9280041e+38
0.1415533 0.73930514 1.853 -1.9014203e+38
0.14612804 0.73690665 1.8470001 -1.9147647e+38
0.15124288 0.73730075 1.848 -1.9281091e+38
0.15644769 0.73809385 1.8500001 -1.9680381e+38
0.16183786 0.73968464 1.8540001 -1.9546935e+38
0.16688971 0.73967957 1.8540001 -2.0747923e+38
0.17147774 0.7376796 1.8490001 -2.0348106e+38
0.17785229 0.74325979 1.863 -2.0613946e+38
0.18577591 0.75482416 1.8920001 -2.1816498e+38
-0.074188732 0.77198261 1.9480001 -3.249151e+38
-0.067358658 0.75494456 1.9050001 -2.2217358e+38
-0.061154537 0.74266189 1.8740001 -2.1149805e+38
-0.055448346 0.73473823 1.8540001 -2.0482072e+38
-0.050258867 0.73275882 1.8490001 -2.021467e+38
-0.045121059 0.73117548 1.845 -2.0081226e+38
-0.039939836 0.72840315 1.8380001 -1.9680379e+38
-0.034796741 0.72563052 1.8310001 -1.9414535e+38
-0.029984789 0.72999108 1.8420001 -1.9281091e+38
-0.025180602 0.73633307 1.858 -1.9014203e+38
-0.020180903 0.73871177 1.8640001 -1.848147e+38
-0.015051266 0.73633462 1.858 -1.8880759e+38
-0.0099597052 0.7343536 1.853 -1.8879717e+38
-0.0049086395 0.73435402 1.853 -1.9411923e+38
0.00014220075 0.7331652 1.8500001 -2.234612e+38
0.0051682768 0.73078716 1.8440001 -2.4079317e+38
0.010167167 0.72880536 1.8390001 -2.5547194e+38
0.015147044 0.72721964 1.835 -2.6079925e+38
0.020105103 0.72563374 1.8310001 -2.447755e+38
0.025027629 0.72365129 1.8260001 -2.6879547e+38
0.029972175 0.72285759 1.8240001 -2.7412806e+38
0.034905795 0.72206366 1.8220001 -2.6344211e+38
0.039872248 0.72206223 1.8220001 -2.5944396e+38
0.044838671 0.72206056 1.8220001 -2.6876943e+38
0.049805053 0.72205865 1.8220001 -2.7143304e+38
0.054711275 0.721264 1.8200001 -2.8076366e+38
0.059508182 0.71928018 1.8150001 -2.9543727e+38
0.06427779 0.71729624 1.8100001 -2.9944059e+38
0.069249526 0.71769005 1.8110001 -3.1145056e+38
0.074554361 0.72125387 1.8200001 -3.0477835e+38
0.079864517 0.7244212 1.8280001 -2.8076366e+38
0.084846899 0.72441804 1.8280001 -2.7276748e+38
0.089730926 0.72362208 1.8260001 -2.6743499e+38
0.094915189 0.72520375 1.83 -2.7011432e+38
0.1001212 0.7267853 1.8340001 -2.7411764e+38
0.10534891 0.72836655 1.8380001 -2.7946053e+38
0.11029817 0.72796637 1.8370001 -2.7144342e+38
0.11549293 0.72915089 1.84 -2.5544575e+38
0.1207695 0.73073184 1.8440001 -2.6879547e+38
0.12613598 0.73270869 1.8490001 -2.327813e+38
0.13160057 0.73508173 1.8550001 -2.1011676e+38
0.13665576 0.73507696 1.8550001 -1.9945699e+38
0.14201644 0.73665714 1.8590001 -1.9014203e+38
0.14708236 0.7366522 1.8590001 -1.8880759e+38
0.15214817 0.73664701 1.8590001 -1.9014203e+38
0.1572139 0.73664182 1.8590001 -1.9413493e+38
0.16210495 0.73584402 1.8570001 -1.9546937e+38
0.16716506 0.73583865 1.8570001 -2.0214149e+38
0.17194682 0.73464441 1.8540001 -1.9813815e+38
0.1783351 0.74018621 1.868 -2.1147722e+38
0.18548693 0.74850166 1.8890001 -2.2749566e+38
-0.074115515 0.76591611 1.9460001 -2.6487042e+38
-0.067856401 0.75529218 1.9190001 -2.0882917e+38
-0.061809681 0.74545515 1.8940001 -2.1283249e+38
-0.055929128 0.73601145 1.8700001 -2.0882404e+38
-0.050478365 0.73089695 1.8570001 -2.0882404e+38
-0.045073982 0.72538865 1.8430001 -2.0615001e+38
-0.04002839 0.72499692 1.8420001 -1.9680894e+38
-0.034855179 0.72184968 1.8340001 -1.9680379e+38
-0.029986018 0.72499979 1.8420001 -1.9680379e+38
-0.025059659 0.72775608 1.8490001 -1.9147647e+38
-0.020149251 0.73248017 1.8610001 -1.8748358e+38
-0.015100495 0.73366177 1.8640001 -1.9146605e+38
-0.0099977423 0.73208785 1.8600001 -1.8879715e+38
-0.0049220868 0.73130095 1.858 -2.061239e+38
0.00014220661 0.72815239 1.8500001 -2.3145213e+38
0.0051684901 0.72579062 1.8440001 -2.5944922e+38
0.010162056 0.72342867 1.8380001 -2.7145389e+38
0.015139413 0.72185379 1.8340001 -2.7943964e+38
0.02009495 0.72027874 1.83 -2.6877458e+38
0.024987536 0.71752256 1.8230001 -2.7544678e+38
0.029924106 0.71673429 1.8210001 -2.7810009e+38
0.034849744 0.71594572 1.8190001 -2.6609012e+38
0.039851982 0.71673131 1.8210001 -2.6742972e+38
0.044840492 0.71712321 1.8220001 -2.7943968e+38
0.049834404 0.71751481 1.8230001 -2.8343254e+38
0.054683417 0.71593827 1.8190001 -2.9009953e+38
0.059412204 0.71318078 1.812 -2.9542686e+38
0.064138308 0.71081674 1.8060001 -3.0343349e+38
0.069061086 0.71081406 1.8060001 -3.12785e+38
0.074352488 0.71435332 1.8150001 -2.9543727e+38
0.079780273 0.71867961 1.8260001 -2.9143397e+38
0.084803812 0.71907002 1.8270001 -2.71433e+38
0.08973442 0.71867287 1.8260001 -2.7276748e+38
0.09481512 0.71945637 1.8280001 -2.6875901e+38
0.10007043 0.72142035 1.8330001 -2.7810009e+38
0.10523829 0.72259706 1.8360001 -2.8077408e+38
0.11036237 0.72337997 1.8380001 -2.8344296e+38
0.11556003 0.72455639 1.8410001 -2.7677076e+38
0.12077398 0.72573262 1.8440001 -2.7278837e+38
0.12607238 0.72730213 1.848 -2.4612043e+38
0.13139252 0.72887158 1.8520001 -2.2078186e+38
0.13673435 0.7304408 1.8560001 -2.0078618e+38
0.1421743 0.73240346 1.8610001 -1.9679858e+38
0.14748316 0.73357886 1.8640001 -1.9281091e+38
0.15289009 0.73514766 1.868 -1.8880759e+38
0.15781133 0.73435509 1.8660001 -1.9146605e+38
0.16237237 0.73198819 1.8600001 -1.9413493e+38
0.1669006 0.72962123 1.8540001 -2.008019e+38
0.17204525 0.73000908 1.8550001 -1.9947261e+38
0.17843637 0.7355125 1.8690001 -2.1413568e+38
0.1848055 0.74062246 1.8820001 -2.461674e+38
0.19245644 0.75045443 1.9070001 -2.4217451e+38
-0.080157764 0.76767546 1.9640001 -3.3293214e+38
-0.074156687 0.76103395 1.9470001 -2.5152602e+38
-0.067823865 0.74970144 1.9180001 -2.0616029e+38
-0.061844915 0.74071413 1.8950001 -2.0349141e+38
-0.05575202 0.72859937 1.8640001 -2.1683068e+38
-0.050371762 0.72430199 1.853 -2.0215184e+38
-0.045100354 0.72078615 1.8440001 -2.0615001e+38
-0.040073551 0.72078788 1.8440001 -2.0081226e+38
-0.035046723 0.72078961 1.8440001 -1.9947267e+38
-0.030052416 0.72157276 1.8460001 -1.9947267e+38
-0.025060732 0.72274661 1.8490001 -1.9014203e+38
-0.020063495 0.72431117 1.853 -1.8881802e+38
-0.015060635 0.72665721 1.8590001 -1.9013161e+38
-0.010003546 0.72743952 1.8610001 -1.941297e+38
-0.0049275975 0.72704905 1.8600001 -2.2079228e+38
0.00014236645 0.72392201 1.8520001 -2.3545545e+38
0.0051659094 0.72040391 1.8430001 -2.7278837e+38
0.010145905 0.71727651 1.835 -2.7544674e+38
0.015115296 0.71571237 1.8310001 -2.9011517e+38
0.020073846 0.71453893 1.8280001 -2.9410806e+38
0.025016021 0.71336538 1.825 -2.9811138e+38
0.029958248 0.71258235 1.8230001 -2.9009953e+38
0.034908708 0.71219015 1.8220001 -3.0344393e+38
0.039897449 0.71257931 1.8230001 -2.9276841e+38
0.044842388 0.71218657 1.8220001 -2.9543729e+38
0.049836509 0.71257544 1.8230001 -2.9676129e+38
0.054685719 0.71100968 1.8190001 -2.9676129e+38
0.059316337 0.70709842 1.8090001 -2.940924e+38
0.063927896 0.70357794 1.8000001 -3.1277457e+38
0.06879627 0.70318425 1.7990001 -3.2478454e+38
0.074068792 0.70669901 1.8080001 -3.1945193e+38
0.0795651 0.71177721 1.8210001 -3.0477308e+38
0.084900118 0.71490067 1.8290001 -2.9009951e+38
0.089885511 0.7148971 1.8290001 -3.0344393e+38
0.095026441 0.71606576 1.8320001 -2.9275798e+38
0.10007446 0.71645266 1.8330001 -2.9009953e+38
0.1052998 0.71801186 1.8370001 -2.9944061e+38
0.11036673 0.71839839 1.8380001 -3.0611281e+38
0.11562733 0.71995723 1.8420001 -2.954425e+38
0.12077866 0.72073424 1.8440001 -2.8611188e+38
0.12614548 0.72268367 1.8490001 -2.6611099e+38
0.13175228 0.72580534 1.8570001 -2.2744881e+38
0.13740261 0.72892696 1.8650001 -2.0211016e+38
0.14248523 0.72892153 1.8650001 -1.9678811e+38
0.14733036 0.72774351 1.8620001 -1.9014203e+38
0.15240459 0.72773784 1.8620001 -1.9147647e+38
0.1582399 0.73124957 1.8710001 -1.8613871e+38
0.16264005 0.72811693 1.863 -1.9280049e+38
0.1677167 0.72811091 1.863 -1.9546935e+38
0.17242223 0.72654158 1.8590001 -2.0214149e+38
0.17796513 0.72848946 1.8640001 -2.1547014e+38
0.18382977 0.7316097 1.8720001 -2.2613522e+38
0.19044435 0.73746544 1.8870001 -2.3282298e+38
0.19828072 0.74761999 1.9130001 -2.3417299e+38
-0.084513515 0.75342309 1.9410001 nan
-0.079304099 0.75420302 1.9430001 -3.1557916e+38
-0.073931351 0.75343001 1.9410001 -2.3150941e+38
-0.068039007 0.74683446 1.9240001 -2.1015321e+38
-0.061782345 0.73480409 1.8930001 -2.021518e+38
-0.055874109 0.72510242 1.868 -2.0882404e+38
-0.050428353 0.72005862 1.8550001 -1.994778e+38
-0.045224637 0.71773165 1.8490001 -2.0081224e+38
-0.040097058 0.71618092 1.845 -2.021467e+38
-0.035143308 0.71773535 1.8490001 -2.0080711e+38
-0.030135151 0.71851313 1.8510001 -1.9813823e+38
-0.025156727 0.72045529 1.8560001 -1.9281091e+38
-0.020086046 0.7200681 1.8550001 -1.8748358e+38
-0.015061307 0.72162157 1.8590001 -1.9280047e+38
-0.01000937 0.72278672 1.8620001 -1.9546929e+38
-0.0049278177 0.72201073 1.8600001 -2.2479035e+38
0.00014244969 0.71929353 1.853 -2.4613093e+38
0.0051661399 0.71541166 1.8430001 -2.7811563e+38
0.010157418 0.71308231 1.8370001 -2.8744628e+38
0.015132483 0.71152896 1.8330001 -2.9143918e+38
0.020096704 0.71036363 1.83 -2.9410285e+38
0.025044551 0.70919806 1.8270001 -2.9410285e+38
0.030008882 0.70880866 1.8260001 -2.9943019e+38
0.034967735 0.70841902 1.825 -3.0209907e+38
0.039942987 0.70841736 1.825 -2.9809573e+38
0.044868983 0.7076391 1.8230001 -3.0343349e+38
0.049866036 0.7080251 1.8240001 -2.9542684e+38
0.054658052 0.70569372 1.8180001 -2.9142352e+38
0.059154969 0.70025688 1.8040001 -3.0343349e+38
0.063682057 0.6959843 1.7930001 -3.194572e+38
0.068608023 0.69636947 1.794 -3.2213123e+38
0.073826171 0.69947165 1.802 -3.3012743e+38
0.079393737 0.70529079 1.817 -3.1411414e+38
0.08481089 0.70916885 1.8270001 -2.95432e+38
0.089889325 0.70994139 1.8290001 -2.9676129e+38
0.095030449 0.71110183 1.8320001 -3.1009009e+38
0.10018784 0.71226203 1.835 -3.0341789e+38
0.10541883 0.71381032 1.8390001 -3.0209907e+38
0.11055144 0.71458203 1.8410001 -2.9810617e+38
0.1155693 0.71457732 1.8410001 -3.0744726e+38
0.12071808 0.71534866 1.8430001 -2.9144961e+38
0.12608233 0.71728432 1.848 -2.7946057e+38
0.13204134 0.72232479 1.8610001 -2.3945877e+38
0.1377764 0.72581255 1.8700001 -2.0077573e+38
0.14287283 0.72580701 1.8700001 -1.9411923e+38
0.14709869 0.72153175 1.8590001 -1.9013161e+38
0.1524923 0.72307831 1.863 -1.9281091e+38
0.15824592 0.72617728 1.8710001 -1.9413493e+38
0.16316998 0.72539485 1.8690001 -1.9413493e+38
0.16745283 0.72189546 1.8600001 -1.9546935e+38
0.17233579 0.72111285 1.858 -1.9947261e+38
0.17758965 0.72188264 1.8600001 -2.0879793e+38
0.1833453 0.72459269 1.8670001 -2.2214232e+38
0.19004732 0.73079556 1.8830001 -2.3280738e+38
0.19745836 0.73932683 1.9050001 -2.4082958e+38
-0.084212475 0.74546683 1.9340001 -2.3018018e+38
-0.078205593 0.73853236 1.9160001 -2.3284898e+38
-0.072982408 0.73853582 1.9160001 -2.1415123e+38
-0.067264043 0.73314261 1.9020001 -2.1015321e+38
-0.061262917 0.72350907 1.8770001 -2.0215184e+38
-0.055816822 0.71927172 1.8660001 -1.994778e+38
-0.050593771 0.71734685 1.8610001 -2.0081226e+38
-0.04544685 0.71619278 1.858 -1.9814338e+38
-0.040120631 0.71156913 1.8460001 -2.0214155e+38
-0.035220955 0.71426916 1.853 -1.9947267e+38
-0.030266792 0.71658349 1.8590001 -1.9281091e+38
-0.025279883 0.71889764 1.8650001 -1.8880759e+38
-0.020141117 0.71697134 1.8600001 -1.9014203e+38
-0.015062004 0.71658671 1.8590001 -1.9413491e+38
-0.0099990815 0.71697277 1.8600001 -2.0079661e+38
-0.0049174475 0.71543121 1.8560001 -2.3145209e+38
0.00014253319 0.71466041 1.8540001 -2.5412707e+38
0.0051691826 0.71080559 1.8440001 -2.847774e+38
0.010163418 0.7084924 1.8380001 -2.9812694e+38
0.015133184 0.70656455 1.8330001 -2.9810615e+38
0.020097636 0.7054072 1.83 -3.0610239e+38
0.025059415 0.7046352 1.8280001 -3.1142453e+38
0.03001027 0.70386308 1.8260001 -3.1141928e+38
0.034988508 0.70386147 1.8260001 -3.1275372e+38
0.039901048 0.7027033 1.8230001 -3.16757e+38
0.044821806 0.70193046 1.8210001 -3.0742634e+38
0.04973162 0.70115733 1.8190001 -2.9009951e+38
0.05451021 0.69884217 1.8130001 -3.0344915e+38
0.059157655 0.69537044 1.8040001 -2.9812181e+38
0.063720442 0.69151288 1.794 -2.9945625e+38
0.068611108 0.6915099 1.794 -2.9678737e+38
0.073665597 0.69304848 1.7980001 -3.0613358e+38
0.079091392 0.6976704 1.8100001 -3.1280558e+38
0.084396847 0.70075035 1.8180001 -2.9944572e+38
0.089647539 0.7030592 1.8240001 -3.0343862e+38
0.094878994 0.70498222 1.8290001 -3.0608148e+38
0.10008301 0.70651966 1.8330001 -3.1542256e+38
0.10530876 0.70805693 1.8370001 -3.047575e+38
0.11037603 0.70843756 1.8380001 -3.1276415e+38
0.11551145 0.70920348 1.84 -3.1144013e+38
0.12065769 0.70996934 1.8420001 -3.0212513e+38
0.12601939 0.71189117 1.8470001 -2.9012563e+38
0.13176304 0.71573997 1.8570001 -2.5680646e+38
0.13792947 0.72151572 1.8720001 -2.1544927e+38
0.14295508 0.72112435 1.8710001 -1.9678286e+38
0.14734206 0.71764958 1.8620001 -1.9146605e+38
0.15266213 0.71879959 1.8650001 -1.9280049e+38
0.1586751 0.72303283 1.876 -1.9546937e+38
0.16378753 0.72302634 1.876 -1.9546937e+38
0.16844967 0.72109264 1.8710001 -1.9947269e+38
0.17326994 0.7199297 1.868 -2.0214155e+38
0.17807379 0.71876675 1.8650001 -2.0214147e+38
0.18384318 0.72145754 1.8720001 -2.16815e+38
0.19035713 0.72684592 1.886 -2.2348719e+38
0.1987094 0.73878568 1.9170001 -2.3150411e+38
-0.090043947 0.74481732 1.9460001 -2.9824178e+38
-0.083868004 0.73716652 1.9260001 -2.6087744e+38
-0.077841848 0.7298981 1.9070001 -2.2750079e+38
-0.072338238 0.72683972 1.899 -2.1548569e+38
-0.066665962 0.72148454 1.8850001 -2.1415655e+38
-0.06113524 0.71689457 1.8730001 -2.048155e+38
-0.055909202 0.71536636 1.8690001 -1.954745e+38
-0.050949603 0.71728277 1.8740001 -1.9680379e+38
-0.045644693 0.71422297 1.8660001 -1.9680379e+38
-0.040252954 0.70886648 1.8520001 -1.9546935e+38
-0.035241649 0.70963383 1.8540001 -1.9280049e+38
-0.030300802 0.71231472 1.8610001 -1.9146605e+38
-0.025253981 0.7130816 1.863 -1.9014203e+38
-0.0201854 0.71346551 1.8640001 -1.9147647e+38
-0.01510324 0.71346629 1.8640001 -1.941297e+38
-0.010004938 0.71231866 1.8610001 -2.0745838e+38
-0.0049123848 0.70963973 1.8540001 -2.3812429e+38
0.00014230938 0.7084915 1.8510001 -2.5679593e+38
0.0051694307 0.70581204 1.8440001 -2.9412366e+38
0.010174965 0.70428061 1.84 -3.0211984e+38
0.015142167 0.70198351 1.8340001 -3.087817e+38
0.020120563 0.70121706 1.8320001 -3.1677791e+38
0.025060615 0.69968492 1.8280001 -3.1809674e+38
0.02997883 0.6981526 1.8240001 -3.1274855e+38
0.034894366 0.69700271 1.8210001 -3.154226e+38
0.039815396 0.69623542 1.8190001 -3.1676743e+38
0.04479932 0.69661611 1.8200001 -3.0342306e+38
0.04976131 0.69661379 1.8200001 -2.9677173e+38
0.054482713 0.69354928 1.812 -3.1280066e+38
0.059226017 0.69124997 1.8060001 -2.5942303e+38
0.06386552 0.6881851 1.7980001 -2.5141639e+38
0.068767309 0.688182 1.7980001 -2.8478783e+38
0.073750958 0.68894404 1.8000001 -2.4875268e+38
