# .PCD v0.7 - Point Cloud Data file format
VERSION 0.7
FIELDS x y z rgb
SIZE 4 4 4 4
TYPE F F F F
COUNT 1 1 1 1
WIDTH 1135
HEIGHT 1
VIEWPOINT 0 0 0 1 0 0 0
POINTS 1135
DATA ascii
0 0 0 -1.7014118e+38
0 0 0 -1.7014118e+38
0 0 0 -1.7014118e+38
0 0 0 -1.7014118e+38
0 0 0 -1.7014118e+38
0 0 0 -1.7014118e+38
0 0 0 -1.7014118e+38
0 0 0 -1.7014118e+38
0 0 0 -1.7014118e+38
0 0 0 -1.7014118e+38
0 0 0 -1.7014118e+38
0 0 0 -1.7014118e+38
0 0 0 -1.7014118e+38
0 0 0 -1.7014118e+38
0 0 0 -1.7014118e+38
0 0 0 -1.7014118e+38
0 0 0 -1.7014118e+38
0 0 0 -1.7014118e+38
0 0 0 -1.7014118e+38
0 0 0 -1.7014118e+38
-0.040074654 -0.13573688 2.0910001 nan
-0.034031369 -0.13456966 2.0730002 -2.5286567e+38
-0.028182568 -0.13385664 2.062 -2.6752352e+38
-0.022415962 -0.13327324 2.0530002 -2.5416342e+38
-0.01671508 -0.13281947 2.046 -2.5949073e+38
-0.011063455 -0.13249536 2.0410001 -2.6349406e+38
-0.0054259156 -0.13184647 2.0310001 -2.6883182e+38
0.00015697585 -0.13145706 2.0250001 -2.5682185e+38
0.0057040513 -0.13100255 2.0180001 -2.501601e+38
0.011240494 -0.13087241 2.016 -2.4615677e+38
0.016757568 -0.13067719 2.013 -2.3948457e+38
0.02226915 -0.13054673 2.0110002 -2.3148835e+38
0.027755816 -0.13035113 2.0080001 -2.3147793e+38
0.033225868 -0.13015534 2.0050001 -2.3147793e+38
0.03869861 -0.1300243 2.003 -2.3012787e+38
0.04407192 -0.12963344 1.9970001 -2.5281336e+38
0.049387235 -0.12917748 1.9900001 -2.5681668e+38
0.054636292 -0.12865642 1.9820001 -2.5681668e+38
0.059901778 -0.12826504 1.9760001 -2.5415827e+38
0.065233208 -0.12806821 1.973 -2.1545955e+38
0.070619501 -0.12800103 1.9720001 -2.2747461e+38
0.076038569 -0.12799859 1.9720001 -2.4348789e+38
0.081415989 -0.12793104 1.9710001 -2.5282898e+38
0.086479209 -0.12740901 1.9630001 -2.608356e+38
0.091264077 -0.12656228 1.95 -2.5816672e+38
0.095828503 -0.12552075 1.9340001 -2.6217004e+38
0.10051379 -0.12473867 1.9220001 -2.6083556e+38
0.10507769 -0.12389158 1.909 -2.5816668e+38
0.10956975 -0.12304437 1.8960001 -2.5949587e+38
0.11411101 -0.12232684 1.8850001 -2.6216475e+38
0.11878121 -0.12180384 1.8770001 -2.6215953e+38
0.12327497 -0.12115096 1.8670001 -2.634888e+38
0.12757574 -0.12036818 1.8550001 -2.6615768e+38
0.13202468 -0.11977995 1.8460001 -2.661629e+38
0.13664643 -0.11938626 1.84 -2.5548737e+38
0.14146575 -0.11918709 1.8370001 -2.4882559e+38
0.14610849 -0.11885804 1.8320001 -2.4749119e+38
0.15080571 -0.11859372 1.8280001 -2.4882566e+38
0.15548041 -0.1183293 1.8240001 -2.4749122e+38
0.16030848 -0.11819447 1.8220001 -2.4749122e+38
0.16494353 -0.11792979 1.8180001 -2.4216388e+38
0.16974288 -0.11779471 1.8160001 -2.4348789e+38
0.17462684 -0.11772437 1.8150001 -2.4482233e+38
0.17950463 -0.11765389 1.8140001 -2.3948457e+38
0.18437624 -0.11758327 1.8130001 -2.4482233e+38
0.18924166 -0.11751252 1.812 -2.4347228e+38
0.19420807 -0.1175065 1.812 -2.4347228e+38
0.19939359 -0.11763005 1.8140001 -2.4482233e+38
0.20470196 -0.11781828 1.817 -2.4749122e+38
0.20979524 -0.11787671 1.8180001 -2.4482233e+38
0.21512945 -0.11806464 1.8210001 -2.4348787e+38
0.22035848 -0.11818761 1.8230001 -2.4749115e+38
0.22572121 -0.11837527 1.8260001 -2.5149448e+38
0.23135231 -0.11869244 1.8310001 -2.5282896e+38
0.23662266 -0.11881497 1.8330001 -2.5282896e+38
0.2424304 -0.11919663 1.8390001 -2.4883608e+38
0.24813564 -0.11951333 1.8440001 -2.528394e+38
0.2541419 -0.11995947 1.8510001 -2.4750164e+38
0.26004553 -0.12034065 1.8570001 -2.5283938e+38
0.26569557 -0.12059206 1.8610001 -2.568427e+38
0.27122113 -0.12077855 1.8640001 -2.6349402e+38
0.27705857 -0.12109446 1.8690001 -2.6749734e+38
0.2832244 -0.1215398 1.876 -2.6749738e+38
0.28973499 -0.12211455 1.8850001 -2.6617338e+38
0.29598093 -0.12255957 1.8920001 -2.6618381e+38
0.30242333 -0.12306919 1.9000001 -2.6218049e+38
0.31004176 -0.12403201 1.9150001 -2.6219091e+38
0 0 0 -1.7014118e+38
0 0 0 -1.7014118e+38
0 0 0 -1.7014118e+38
0 0 0 -1.7014118e+38
0 0 0 -1.7014118e+38
0 0 0 -1.7014118e+38
0 0 0 -1.7014118e+38
0 0 0 -1.7014118e+38
0 0 0 -1.7014118e+38
0 0 0 -1.7014118e+38
0 0 0 -1.7014118e+38
0 0 0 -1.7014118e+38
0 0 0 -1.7014118e+38
0 0 0 -1.7014118e+38
0 0 0 -1.7014118e+38
0 0 0 -1.7014118e+38
0 0 0 -1.7014118e+38
-0.040149942 -0.1417508 2.095 nan
-0.034128699 -0.14066951 2.079 -2.4352462e+38
-0.028249938 -0.13985866 2.0670002 -2.7686465e+38
-0.02242611 -0.13897991 2.0540001 -2.5816674e+38
-0.016714506 -0.1384393 2.046 -2.4615677e+38
-0.011079337 -0.13830446 2.0440001 -2.4882566e+38
-0.0054497728 -0.13803411 2.0400002 -2.5815112e+38
0.0001577456 -0.13769586 2.0350001 -2.6217004e+38
0.0057292944 -0.13715446 2.0270002 -2.5816672e+38
0.011279136 -0.1368835 2.023 -2.5149454e+38
0.01680694 -0.13661237 2.0190001 -2.4483276e+38
0.022323752 -0.13640869 2.016 -2.4349832e+38
0.027796334 -0.13606951 2.0110002 -2.4082429e+38
0.033274446 -0.13586544 2.0080001 -2.3948985e+38
0.038774569 -0.13579653 2.0070002 -2.354761e+38
0.044224888 -0.13559209 2.0040002 -2.3280722e+38
0.049608897 -0.13525215 1.9990001 -2.288039e+38
0.054937646 -0.13484436 1.9930001 -2.4748606e+38
0.06017255 -0.1343011 1.9850001 -2.5015494e+38
0.06542936 -0.13389297 1.9790001 -2.4348274e+38
0.070688717 -0.13355231 1.9740001 -2.3947942e+38
0.076151647 -0.13361742 1.9750001 -2.3280722e+38
0.081619754 -0.13368234 1.9760001 -2.354761e+38
0.086872749 -0.13340881 1.9720001 -2.501601e+38
0.091682196 -0.13252626 1.9590001 -2.6617336e+38
0.096271187 -0.13144064 1.9430001 -2.6217004e+38
0.10092875 -0.13055784 1.9300001 -2.6350444e+38
0.10545944 -0.12960725 1.9160001 -2.5816668e+38
0.1097972 -0.12852123 1.9000001 -2.6349406e+38
0.11434931 -0.12777334 1.8890001 -2.6082518e+38
0.11903036 -0.12722822 1.881 -2.6082513e+38
0.12353495 -0.12654771 1.8710001 -2.6749738e+38
0.12777779 -0.12566417 1.858 -2.6616294e+38
0.13209181 -0.12491581 1.8470001 -2.6349406e+38
0.13671616 -0.12450547 1.8410001 -2.5415297e+38
0.14153807 -0.12429788 1.8380001 -2.4882564e+38
0.14618343 -0.12395491 1.8330001 -2.4882564e+38
0.15096574 -0.12374704 1.83 -2.4482231e+38
0.15573102 -0.12353905 1.8270001 -2.4615675e+38
0.16039121 -0.12326328 1.8230001 -2.4749119e+38
0.16502886 -0.12298743 1.8190001 -2.4482231e+38
0.16973737 -0.12277903 1.8160001 -2.4215345e+38
0.1747174 -0.12277333 1.8160001 -2.4347228e+38
0.17959778 -0.12269988 1.8150001 -2.4347228e+38
0.18447202 -0.1226263 1.8140001 -2.4480672e+38
0.18934004 -0.12255256 1.8130001 -2.4480672e+38
0.19430907 -0.12254631 1.8130001 -2.4614116e+38
0.19938725 -0.12260749 1.8140001 -2.4615677e+38
0.20458283 -0.12273613 1.8160001 -2.4614116e+38
0.20978859 -0.1228646 1.8180001 -2.5014965e+38
0.21535896 -0.12319569 1.8230001 -2.4749119e+38
0.22071417 -0.12339143 1.8260001 -2.4882559e+38
0.22608502 -0.12358703 1.8290001 -2.5416336e+38
0.23147146 -0.12378248 1.8320001 -2.5282892e+38
0.23674443 -0.12391022 1.8340001 -2.5149448e+38
0.24255477 -0.12430805 1.84 -2.434983e+38
0.24826255 -0.12463814 1.845 -2.4616718e+38
0.25413415 -0.12503564 1.8510001 -2.4882559e+38
0.25989762 -0.12536541 1.8560001 -2.554978e+38
0.26554483 -0.1256275 1.8600001 -2.5416336e+38
0.27150396 -0.1260245 1.8660001 -2.6215958e+38
0.27734679 -0.1263538 1.8710001 -2.6215962e+38
0.28336698 -0.12675047 1.8770001 -2.6348888e+38
0.28957275 -0.12721452 1.8840001 -2.6217006e+38
0.29597223 -0.12774591 1.8920001 -2.6617338e+38
0.302892 -0.12847964 1.9030001 -2.6885269e+38
0.3105185 -0.12948327 1.9180001 -2.5818759e+38
0 0 0 -1.7014118e+38
0 0 0 -1.7014118e+38
0 0 0 -1.7014118e+38
0 0 0 -1.7014118e+38
0 0 0 -1.7014118e+38
0 0 0 -1.7014118e+38
0 0 0 -1.7014118e+38
0 0 0 -1.7014118e+38
0 0 0 -1.7014118e+38
0 0 0 -1.7014118e+38
0 0 0 -1.7014118e+38
0 0 0 -1.7014118e+38
0 0 0 -1.7014118e+38
0 0 0 -1.7014118e+38
0 0 0 -1.7014118e+38
0 0 0 -1.7014118e+38
0 0 0 -1.7014118e+38
0 0 0 -1.7014118e+38
-0.034209561 -0.1467313 2.0840001 -2.3418354e+38
-0.028330931 -0.14595796 2.0730002 -2.5684804e+38
-0.022479899 -0.14497313 2.059 -2.7285601e+38
-0.016722079 -0.14412893 2.0470002 -2.5149454e+38
-0.011073521 -0.14384779 2.043 -2.5147892e+38
-0.0054522492 -0.14370728 2.0410001 -2.5147892e+38
0.00015805002 -0.14356655 2.039 -2.5147892e+38
0.0057517006 -0.14328481 2.0350001 -2.608356e+38
0.011306609 -0.14279161 2.0280001 -2.5016008e+38
0.016847961 -0.14250948 2.0240002 -2.3815013e+38
0.022367245 -0.14222711 2.02 -2.3682612e+38
0.027864445 -0.14194456 2.016 -2.314832e+38
0.033356111 -0.14173223 2.013 -2.3681058e+38
0.038831141 -0.1415197 2.01 -2.408139e+38
0.044333655 -0.1414478 2.0090001 -2.408139e+38
0.049731214 -0.14109404 2.0040002 -2.408139e+38
0.055101078 -0.14074013 1.9990001 -2.3414166e+38
0.060412921 -0.14031561 1.9930001 -2.4480676e+38
0.065691516 -0.13989091 1.9870001 -2.4081901e+38
0.070972688 -0.13953643 1.9820001 -2.4481718e+38
0.076341741 -0.13939297 1.9800001 -2.3013834e+38
0.081823394 -0.13946053 1.9810001 -2.288039e+38
0.087178044 -0.13931669 1.9790001 -2.3147793e+38
0.09224055 -0.13875028 1.9710001 -2.568323e+38
0.097010992 -0.13783176 1.9580001 -2.6617336e+38
0.10150043 -0.13663152 1.9410001 -2.6083556e+38
0.10584103 -0.13536078 1.9230001 -2.6083556e+38
0.11008231 -0.13408992 1.9050001 -2.6616294e+38
0.11458746 -0.13324128 1.8930001 -2.648285e+38
0.11915278 -0.13253328 1.8830001 -2.6749738e+38
0.12353066 -0.13168439 1.8710001 -2.6749738e+38
0.12770459 -0.13069461 1.8570001 -2.715007e+38
0.13194419 -0.12984549 1.845 -2.6215962e+38
0.13656293 -0.12941851 1.8390001 -2.5548741e+38
0.14137919 -0.12920253 1.8360001 -2.4882564e+38
0.14617841 -0.12898639 1.8330001 -2.4615675e+38
0.15104309 -0.12884048 1.8310001 -2.4882564e+38
0.15581094 -0.12862402 1.8280001 -2.4749119e+38
0.16047375 -0.1283371 1.8240001 -2.4348787e+38
0.16502327 -0.12797968 1.8190001 -2.4348787e+38
0.16973163 -0.12776284 1.8160001 -2.4215345e+38
0.17471151 -0.12775692 1.8160001 -2.4480672e+38
0.17978966 -0.12782119 1.817 -2.4480672e+38
0.18477091 -0.12781496 1.817 -2.4480672e+38
0.18954259 -0.12766792 1.8150001 -2.4480672e+38
0.19440979 -0.12759107 1.8140001 -2.4347228e+38
0.19938065 -0.12758443 1.8140001 -2.4215345e+38
0.20457609 -0.1277183 1.8160001 -2.4614633e+38
0.20989712 -0.12792236 1.8190001 -2.5281853e+38
0.21535191 -0.12819654 1.8230001 -2.4881521e+38
0.22082788 -0.12847058 1.8270001 -2.5148409e+38
0.22607771 -0.12860383 1.8290001 -2.5548741e+38
0.23159036 -0.12887754 1.8330001 -2.4882564e+38
0.236995 -0.12908077 1.8360001 -2.5016008e+38
0.24281067 -0.12949476 1.8420001 -2.4615675e+38
0.24852382 -0.12983829 1.8470001 -2.4749119e+38
0.25426343 -0.13018164 1.8520001 -2.4749119e+38
0.26002946 -0.1305248 1.8570001 -2.4882564e+38
0.26582202 -0.13086782 1.8620001 -2.5149452e+38
0.27164102 -0.13121067 1.8670001 -2.5683224e+38
0.27778289 -0.13169391 1.8740001 -2.541634e+38
0.28381112 -0.13210671 1.8800001 -2.6217006e+38
0.29017863 -0.13265985 1.8880001 -2.635045e+38
0.29658893 -0.13321282 1.8960001 -2.6084605e+38
0.30351946 -0.13397637 1.9070001 -2.6351493e+38
0.31115669 -0.13502069 1.9220001 -2.5818759e+38
0 0 0 -1.7014118e+38
0 0 0 -1.7014118e+38
0 0 0 -1.7014118e+38
0 0 0 -1.7014118e+38
0 0 0 -1.7014118e+38
0 0 0 -1.7014118e+38
0 0 0 -1.7014118e+38
0 0 0 -1.7014118e+38
0 0 0 -1.7014118e+38
0 0 0 -1.7014118e+38
0 0 0 -1.7014118e+38
0 0 0 -1.7014118e+38
0 0 0 -1.7014118e+38
0 0 0 -1.7014118e+38
0 0 0 -1.7014118e+38
0 0 0 -1.7014118e+38
0 0 0 -1.7014118e+38
0 0 0 -1.7014118e+38
-0.034241121 -0.15260051 2.0860002 -3.0625376e+38
-0.02837088 -0.15187013 2.0760002 -2.4351406e+38
-0.022511819 -0.1508469 2.062 -2.7285086e+38
-0.016737798 -0.14989662 2.049 -2.5950118e+38
-0.011067691 -0.14938505 2.0420001 -2.4881004e+38
-0.005449377 -0.14923908 2.0400002 -2.5281336e+38
0.00015804416 -0.149166 2.039 -2.4614116e+38
0.0057543134 -0.14894642 2.036 -2.4215345e+38
0.011317343 -0.14850718 2.0300002 -2.5549786e+38
0.016855661 -0.14814086 2.0250001 -2.5149454e+38
0.022366419 -0.14777432 2.02 -2.3948457e+38
0.02787724 -0.14755392 2.0170002 -2.3280722e+38
0.033371445 -0.14733329 2.0140002 -2.2480061e+38
0.038887661 -0.14725879 2.013 -2.2746432e+38
0.04442028 -0.14725722 2.013 -2.301332e+38
0.049878266 -0.147036 2.01 -2.301332e+38
0.055319559 -0.14681458 2.0070002 -2.301332e+38
0.060653191 -0.1463735 2.0010002 -2.3814502e+38
0.066019699 -0.14607851 1.9970001 -2.4615162e+38
0.071363963 -0.14578336 1.9930001 -2.3947946e+38
0.076801591 -0.14570743 1.9920001 -2.3681058e+38
0.082233414 -0.14563131 1.9910001 -2.3547097e+38
0.087571308 -0.14540872 1.988 -2.3147807e+38
0.092845544 -0.1451128 1.9840001 -2.2747992e+38
0.097899243 -0.14452414 1.9760001 -2.5149981e+38
0.10243798 -0.14327706 1.9590001 -2.675078e+38
0.1066077 -0.14166418 1.937 -2.6350448e+38
0.11065614 -0.1400512 1.9150001 -2.648285e+38
0.11494648 -0.13887691 1.899 -2.6882665e+38
0.1193383 -0.13792191 1.886 -2.7016626e+38
0.12352621 -0.13682052 1.8710001 -2.7416958e+38
0.12770002 -0.13579218 1.8570001 -2.7151113e+38
0.13201098 -0.13498308 1.8460001 -2.648285e+38
0.13663229 -0.13453944 1.84 -2.5415297e+38
0.14137414 -0.13424192 1.8360001 -2.4749119e+38
0.14625296 -0.13409048 1.8340001 -2.4881517e+38
0.15120269 -0.13401198 1.8330001 -2.4615671e+38
0.15606111 -0.13386022 1.8310001 -2.4482227e+38
0.16064405 -0.133489 1.8260001 -2.4882564e+38
0.16519891 -0.13311766 1.8210001 -2.4615675e+38
0.17000605 -0.13296546 1.8190001 -2.4348789e+38
0.1748978 -0.13288622 1.8180001 -2.474756e+38
0.17988233 -0.13287991 1.8180001 -2.4347228e+38
0.18476449 -0.13280037 1.817 -2.4480672e+38
0.18964048 -0.13272069 1.8160001 -2.4480672e+38
0.19451024 -0.13264085 1.8150001 -2.4480672e+38
0.19959363 -0.13270706 1.8160001 -2.4614116e+38
0.20490704 -0.13291922 1.8190001 -2.5014965e+38
0.21000534 -0.1329851 1.8200001 -2.5281853e+38
0.21546274 -0.13327 1.8240001 -2.4748077e+38
0.22082041 -0.13348168 1.8270001 -2.5415297e+38
0.2263173 -0.13376625 1.8310001 -2.5415297e+38
0.23170894 -0.13397759 1.8340001 -2.5415293e+38
0.23711617 -0.13418879 1.8370001 -2.5682181e+38
0.24306627 -0.134692 1.8440001 -2.5148409e+38
0.24878471 -0.13504891 1.8490001 -2.4749119e+38
0.25452963 -0.13540567 1.8540001 -2.4615675e+38
0.26044106 -0.13583529 1.8600001 -2.5149454e+38
0.26624164 -0.13619168 1.8650001 -2.5149452e+38
0.27206874 -0.13654794 1.8700001 -2.5549784e+38
0.27792218 -0.136904 1.8750001 -2.5417384e+38
0.28395298 -0.13733289 1.881 -2.5816674e+38
0.29032311 -0.13790764 1.8890001 -2.5951161e+38
0.29673597 -0.1384822 1.8970001 -2.6484422e+38
0.30398738 -0.13942152 1.9100001 -2.56848e+38
0.31147075 -0.14043361 1.9240001 -2.7553532e+38
0 0 0 -1.7014118e+38
0 0 0 -1.7014118e+38
0 0 0 -1.7014118e+38
0 0 0 -1.7014118e+38
0 0 0 -1.7014118e+38
0 0 0 -1.7014118e+38
0 0 0 -1.7014118e+38
0 0 0 -1.7014118e+38
0 0 0 -1.7014118e+38
0 0 0 -1.7014118e+38
0 0 0 -1.7014118e+38
0 0 0 -1.7014118e+38
0 0 0 -1.7014118e+38
0 0 0 -1.7014118e+38
0 0 0 -1.7014118e+38
0 0 0 -1.7014118e+38
0 0 0 -1.7014118e+38
-0.034321882 -0.15870774 2.0910001 nan
-0.02838346 -0.15764636 2.0770001 -2.435245e+38
-0.022565544 -0.15688834 2.0670002 -2.4884139e+38
-0.01676983 -0.15582648 2.0530002 -2.8350549e+38
-0.011072686 -0.15506798 2.043 -2.5147892e+38
-0.0054411539 -0.15461291 2.0370002 -2.5281336e+38
0.00015772808 -0.15446121 2.0350001 -2.4881004e+38
0.0057456144 -0.15430929 2.033 -2.4213784e+38
0.011311332 -0.15400535 2.029 -2.3815011e+38
0.016871663 -0.15385298 2.0270002 -2.4749122e+38
0.022398777 -0.1535486 2.023 -2.5416342e+38
0.027917635 -0.15331993 2.02 -2.4615162e+38
0.033403307 -0.15301514 2.016 -2.3147282e+38
0.038886175 -0.15278602 2.013 -2.2746432e+38
0.044418581 -0.15278439 2.013 -2.2479548e+38
0.04992599 -0.15270668 2.0120001 -2.2479548e+38
0.0554277 -0.15262875 2.0110002 -2.2746436e+38
0.060772121 -0.15217111 2.0050001 -2.2612988e+38
0.066182472 -0.15194096 2.0020001 -2.4614649e+38
0.071683489 -0.15193829 2.0020001 -2.3813985e+38
0.077184215 -0.15193541 2.0020001 -2.301332e+38
0.082602009 -0.15178055 2 -2.1279594e+38
0.087920375 -0.1514737 1.9960001 -2.1147195e+38
0.093263194 -0.15124254 1.9930001 -2.2748521e+38
0.098589137 -0.1510112 1.9900001 -2.2081814e+38
0.10337531 -0.15002084 1.9770001 -2.5283425e+38
0.10748426 -0.14819562 1.9530001 -2.6750782e+38
0.11146094 -0.14637032 1.9290001 -2.6617338e+38
0.11566851 -0.14500017 1.9110001 -2.6882665e+38
0.11990331 -0.14378171 1.8950001 -2.6883182e+38
0.12378569 -0.14225961 1.8750001 -2.6483892e+38
0.12776402 -0.14096503 1.858 -2.7284557e+38
0.13207757 -0.14012557 1.8470001 -2.6482846e+38
0.13670149 -0.13966531 1.8410001 -2.4882559e+38
0.14144593 -0.13935663 1.8370001 -2.4348787e+38
0.1463273 -0.1391995 1.835 -2.5148409e+38
0.15119714 -0.13904223 1.8330001 -2.5016004e+38
0.15605542 -0.13888478 1.8310001 -2.4749115e+38
0.16081412 -0.13865134 1.8280001 -2.4882564e+38
0.16537432 -0.13826606 1.8230001 -2.4749119e+38
0.17028025 -0.138184 1.8220001 -2.4348787e+38
0.17508388 -0.13802595 1.8200001 -2.4614116e+38
0.18007372 -0.13801943 1.8200001 -2.4614116e+38
0.18485953 -0.13786109 1.8180001 -2.4347228e+38
0.18984252 -0.13785425 1.8180001 -2.4347228e+38
0.19471763 -0.13777144 1.817 -2.4480672e+38
0.19969642 -0.13776429 1.817 -2.4614116e+38
0.20501241 -0.13798444 1.8200001 -2.4481189e+38
0.21022871 -0.13812861 1.8220001 -2.4881521e+38
0.21557328 -0.13834842 1.825 -2.5014965e+38
0.22093354 -0.13856806 1.8280001 -2.5281853e+38
0.22630942 -0.13878754 1.8310001 -2.5415297e+38
0.23182723 -0.13908263 1.835 -2.5281853e+38
0.23723705 -0.13930176 1.8380001 -2.5682185e+38
0.24305789 -0.1397481 1.8440001 -2.5281336e+38
0.24864164 -0.14004265 1.848 -2.4882566e+38
0.25465825 -0.14056438 1.8550001 -2.4882566e+38
0.26071227 -0.14108591 1.8620001 -2.5416342e+38
0.26666093 -0.14153147 1.868 -2.568323e+38
0.27220508 -0.14174958 1.8710001 -2.5549784e+38
0.27791294 -0.14204328 1.8750001 -2.5550826e+38
0.28379267 -0.14241256 1.8800001 -2.608356e+38
0.29031354 -0.14308465 1.8890001 -2.6218049e+38
0.29688269 -0.14375654 1.8980001 -2.6219091e+38
0.30445498 -0.14488265 1.9130001 -2.56848e+38
0.31259385 -0.14623566 1.9310001 -2.5019141e+38
0 0 0 -1.7014118e+38
0 0 0 -1.7014118e+38
0 0 0 -1.7014118e+38
0 0 0 -1.7014118e+38
0 0 0 -1.7014118e+38
0 0 0 -1.7014118e+38
0 0 0 -1.7014118e+38
0 0 0 -1.7014118e+38
0 0 0 -1.7014118e+38
0 0 0 -1.7014118e+38
0 0 0 -1.7014118e+38
0 0 0 -1.7014118e+38
0 0 0 -1.7014118e+38
0 0 0 -1.7014118e+38
-0.03438618 -0.16476315 2.095 nan
-0.028368674 -0.16327015 2.0760002 -2.4085047e+38
-0.022575565 -0.16264197 2.0680001 -2.448329e+38
-0.016810006 -0.16185629 2.0580001 -2.6482333e+38
-0.011093928 -0.16099176 2.0470002 -2.715007e+38
-0.0054489514 -0.16044155 2.0400002 -2.5548741e+38
0.00015772184 -0.16004841 2.0350001 -2.5148409e+38
0.0057425606 -0.15981233 2.0320001 -2.4748077e+38
0.011299735 -0.15941878 2.0270002 -2.4347745e+38
0.016862668 -0.15933953 2.026 -2.4081901e+38
0.022397893 -0.15910281 2.023 -2.4882566e+38
0.027930347 -0.1589445 2.0210001 -2.4882566e+38
0.033435125 -0.15870735 2.0180001 -2.3947942e+38
0.038903955 -0.15839131 2.0140002 -2.3280209e+38
0.044394765 -0.15823233 2.0120001 -2.2612992e+38
0.049899213 -0.15815181 2.0110002 -2.2614035e+38
0.055425502 -0.15814967 2.0110002 -2.2347147e+38
0.060860649 -0.15791143 2.0080001 -2.2213699e+38
0.066312097 -0.15775159 2.006 -2.1946811e+38
0.071823895 -0.15774883 2.006 -2.2480591e+38
0.077373952 -0.15782452 2.0070002 -2.3146769e+38
0.08284656 -0.15774265 2.006 -2.1679409e+38
0.088225253 -0.15750334 2.003 -2.0879791e+38
0.093587093 -0.15726383 2 -2.0346015e+38
0.09893208 -0.15702412 1.9970001 -2.2081301e+38
0.10384186 -0.15615517 1.9860001 -2.3682626e+38
0.10808545 -0.15442118 1.9640001 -2.6884226e+38
0.11214996 -0.15260845 1.9410001 -2.635045e+38
0.11645086 -0.15126738 1.9240001 -2.7149553e+38
0.12059465 -0.14984757 1.9060001 -2.6749738e+38
0.12430904 -0.14803454 1.8830001 -2.6617336e+38
0.12796539 -0.14630006 1.8610001 -2.7417997e+38
0.13221553 -0.14535163 1.8490001 -2.5149448e+38
0.13684474 -0.14487472 1.8430001 -2.4615671e+38
0.14159451 -0.14455488 1.8390001 -2.4615675e+38
0.1464812 -0.14439209 1.8370001 -2.4749115e+38
0.15143883 -0.14430773 1.8360001 -2.4482227e+38
0.15621994 -0.14406599 1.8330001 -2.4615671e+38
0.160896 -0.14374551 1.8290001 -2.4482227e+38
0.16545878 -0.14334632 1.8240001 -2.5014965e+38
0.17036732 -0.14326131 1.8230001 -2.4881521e+38
0.17526972 -0.14317615 1.8220001 -2.4480672e+38
0.18016596 -0.14309083 1.8210001 -2.4347228e+38
0.18485267 -0.14284818 1.8180001 -2.474756e+38
0.18993992 -0.14291969 1.8190001 -2.4614116e+38
0.19492479 -0.14291248 1.8190001 -2.474756e+38
0.2001287 -0.1430622 1.8210001 -2.4480672e+38
0.20534286 -0.14321177 1.8230001 -2.5014965e+38
0.21056718 -0.14336115 1.825 -2.4748077e+38
0.21568359 -0.14343183 1.8260001 -2.5014965e+38
0.22092557 -0.14358088 1.8280001 -2.5014965e+38
0.22630127 -0.14380831 1.8310001 -2.5014965e+38
0.23181893 -0.14411411 1.835 -2.5281853e+38
0.23735769 -0.14441973 1.8390001 -2.5681668e+38
0.24304929 -0.14480369 1.8440001 -2.5815112e+38
0.24863288 -0.14510894 1.848 -2.5281336e+38
0.25464931 -0.14564957 1.8550001 -2.5149454e+38
0.26070315 -0.14618999 1.8620001 -2.6483894e+38
0.26679441 -0.1467302 1.8690001 -2.5549786e+38
0.27234116 -0.14695621 1.8720001 -2.5149452e+38
0.27805156 -0.14726055 1.876 -2.5016008e+38
0.28393391 -0.14764322 1.881 -2.5950116e+38
0.29061103 -0.14841814 1.891 -2.6218049e+38
0.29734191 -0.14919287 1.9010001 -2.5685315e+38
0.30539963 -0.15059513 1.9190001 -2.5686362e+38
0 0 0 -1.7014118e+38
0 0 0 -1.7014118e+38
0 0 0 -1.7014118e+38
0 0 0 -1.7014118e+38
0 0 0 -1.7014118e+38
0 0 0 -1.7014118e+38
0 0 0 -1.7014118e+38
0 0 0 -1.7014118e+38
0 0 0 -1.7014118e+38
0 0 0 -1.7014118e+38
0 0 0 -1.7014118e+38
0 0 0 -1.7014118e+38
0 0 0 -1.7014118e+38
0 0 0 -1.7014118e+38
0 0 0 -1.7014118e+38
-0.028408501 -0.16921328 2.079 -2.4485379e+38
-0.022596475 -0.16848184 2.0700002 -2.4216919e+38
-0.016833823 -0.16775014 2.0610001 -2.5681668e+38
-0.011125989 -0.16709957 2.0530002 -2.781729e+38
-0.005459412 -0.16636737 2.0440001 -2.5949073e+38
0.00015779288 -0.16571632 2.036 -2.5281853e+38
0.0057395003 -0.16530927 2.0310001 -2.4881521e+38
0.011304847 -0.16506472 2.0280001 -2.4481189e+38
0.016870303 -0.16498274 2.0270002 -2.3948457e+38
0.022430189 -0.16490051 2.026 -2.4081901e+38
0.027970666 -0.1647367 2.0240002 -2.4082944e+38
0.033483464 -0.16449125 2.0210001 -2.4616205e+38
0.038940996 -0.16408278 2.016 -2.3415212e+38
0.044437081 -0.16391827 2.0140002 -2.3148324e+38
0.04997161 -0.16391632 2.0140002 -2.3147807e+38
0.055478364 -0.16383274 2.013 -2.2747479e+38
0.060949095 -0.16366757 2.0110002 -2.2880923e+38
0.066375516 -0.16342078 2.0080001 -2.2747479e+38
0.071892582 -0.16341792 2.0080001 -2.2480074e+38
0.077447906 -0.16349621 2.0090001 -2.2079745e+38
0.083008394 -0.16357428 2.01 -2.18139e+38
0.088441916 -0.16340801 2.0080001 -2.18139e+38
0.093864068 -0.16324152 2.006 -2.101428e+38
0.099225312 -0.16299343 2.003 -1.9545363e+38
0.10415139 -0.16209416 1.9920001 -2.2081301e+38
0.1082462 -0.16005553 1.9670001 -2.6484422e+38
0.11226101 -0.15809816 1.9430001 -2.6083562e+38
0.11662777 -0.15679164 1.927 -2.6749221e+38
0.12090617 -0.15548499 1.9110001 -2.7283514e+38
0.12450212 -0.15344597 1.886 -2.6883178e+38
0.12816657 -0.15165097 1.8640001 -2.7284027e+38
0.1322818 -0.15050672 1.8500001 -2.5549254e+38
0.13683933 -0.14993182 1.8430001 -2.5148405e+38
0.14158891 -0.14960082 1.8390001 -2.4615675e+38
0.14639571 -0.14935103 1.8360001 -2.4482231e+38
0.15143289 -0.14934507 1.8360001 -2.4749119e+38
0.15621383 -0.14909494 1.8330001 -2.4882564e+38
0.16097769 -0.14884463 1.83 -2.4881521e+38
0.16563378 -0.14851284 1.8260001 -2.5014965e+38
0.1703607 -0.14826219 1.8230001 -2.4881521e+38
0.17535914 -0.14825541 1.8230001 -2.4614116e+38
0.18025795 -0.14816712 1.8220001 -2.474756e+38
0.18515061 -0.14807867 1.8210001 -2.4480672e+38
0.19003709 -0.14799006 1.8200001 -2.4881004e+38
0.19513167 -0.14806391 1.8210001 -2.4614116e+38
0.2003409 -0.14821889 1.8230001 -2.4480672e+38
0.20544772 -0.14829238 1.8240001 -2.474756e+38
0.21067464 -0.14844701 1.8260001 -2.4748077e+38
0.21591172 -0.14860144 1.8280001 -2.5281849e+38
0.22115901 -0.14875573 1.83 -2.5148405e+38
0.22629286 -0.14882855 1.8310001 -2.5014965e+38
0.23168404 -0.14906377 1.8340001 -2.5949073e+38
0.23721987 -0.14938007 1.8380001 -2.5949073e+38
0.24304035 -0.14985873 1.8440001 -2.5815629e+38
0.2486238 -0.15017468 1.848 -2.5415297e+38
0.2543655 -0.15057169 1.853 -2.5281853e+38
0.26013371 -0.15096851 1.858 -2.6349406e+38
0.26621386 -0.15152763 1.8650001 -2.7683846e+38
0.27218592 -0.1520053 1.8710001 -2.6349402e+38
0.2781899 -0.15248279 1.8770001 -2.5682181e+38
0.28407481 -0.15287885 1.8820001 -2.5949073e+38
0.29075447 -0.15368083 1.8920001 -2.6350448e+38
0.29780072 -0.15464506 1.904 -2.6618379e+38
0.30602553 -0.15617752 1.9230001 -2.4484318e+38
0 0 0 -1.7014118e+38
0 0 0 -1.7014118e+38
0 0 0 -1.7014118e+38
0 0 0 -1.7014118e+38
0 0 0 -1.7014118e+38
0 0 0 -1.7014118e+38
0 0 0 -1.7014118e+38
0 0 0 -1.7014118e+38
0 0 0 -1.7014118e+38
0 0 0 -1.7014118e+38
0 0 0 -1.7014118e+38
0 0 0 -1.7014118e+38
0 0 0 -1.7014118e+38
-0.028502954 -0.17550883 2.0860002 -2.8488701e+38
-0.02262827 -0.17441614 2.0730002 -2.5417916e+38
-0.016865779 -0.17374386 2.0650001 -2.5281336e+38
-0.011158032 -0.17323963 2.059 -2.5949073e+38
-0.0054805479 -0.17265104 2.052 -2.7016626e+38
0.00015832868 -0.17189389 2.043 -2.5815625e+38
0.0057505607 -0.17122069 2.0350001 -2.4881517e+38
0.011315518 -0.17079964 2.0300002 -2.4748077e+38
0.016877912 -0.17063074 2.0280001 -2.4482233e+38
0.022429241 -0.17046162 2.026 -2.3414681e+38
0.027969487 -0.17029229 2.0240002 -2.3948457e+38
0.033498615 -0.17012268 2.0220001 -2.4215873e+38
0.0389973 -0.16986872 2.0190001 -2.3948989e+38
0.044523459 -0.1697828 2.0180001 -2.3548656e+38
0.050043941 -0.16969667 2.0170002 -2.3547097e+38
0.055531148 -0.16952613 2.0150001 -2.3280209e+38
0.061037451 -0.16943952 2.0140002 -2.3146769e+38
0.06650494 -0.16926852 2.0120001 -2.287988e+38
0.072032772 -0.16926558 2.0120001 -2.2480074e+38
0.077521756 -0.16917828 2.0110002 -2.221319e+38
0.083087511 -0.169259 2.0120001 -2.18139e+38
0.088614397 -0.16925536 2.0120001 -2.1680456e+38
0.094094105 -0.16916738 2.0110002 -2.1548054e+38
0.099518403 -0.16899505 2.0090001 -2.2214747e+38
0.10456532 -0.16823366 2 -2.0613419e+38
0.10868194 -0.1661263 1.9750001 -2.675131e+38
0.11242969 -0.16368234 1.9460001 -2.6884226e+38
0.11668347 -0.16216354 1.9280001 -2.6883182e+38
0.12083791 -0.16064461 1.9100001 -2.7283514e+38
0.124431 -0.15853685 1.8850001 -2.7817286e+38
0.12809256 -0.15668131 1.863 -2.6750251e+38
0.13227639 -0.15558261 1.8500001 -2.5549254e+38
0.13690799 -0.15507242 1.8440001 -2.5014961e+38
0.14166014 -0.15473029 1.84 -2.4749119e+38
0.14654922 -0.15455617 1.8380001 -2.4749119e+38
0.15150924 -0.15446594 1.8370001 -2.4749119e+38
0.15629275 -0.15420738 1.8340001 -2.5016008e+38
0.16105919 -0.15394865 1.8310001 -2.5148409e+38
0.16571784 -0.15360568 1.8270001 -2.5014965e+38
0.17044733 -0.15334661 1.8240001 -2.4614633e+38
0.17544834 -0.15333959 1.8240001 -2.4614116e+38
0.18034972 -0.15324837 1.8230001 -2.4614116e+38
0.18534662 -0.15324099 1.8230001 -2.4480672e+38
0.19002956 -0.1529813 1.8200001 -2.474756e+38
0.195124 -0.15305766 1.8210001 -2.5014448e+38
0.20033306 -0.15321788 1.8230001 -2.4614116e+38
0.20555235 -0.15337794 1.825 -2.5014448e+38
0.21078184 -0.15353779 1.8270001 -2.5014965e+38
0.21590337 -0.15361343 1.8280001 -2.4748073e+38
0.22127135 -0.15385696 1.8310001 -2.4881517e+38
0.2264078 -0.15393227 1.8320001 -2.5014965e+38
0.23180151 -0.15417543 1.835 -2.5281853e+38
0.23746897 -0.15458646 1.84 -2.5548741e+38
0.24342658 -0.15516528 1.8470001 -2.5415297e+38
0.24901806 -0.15549189 1.8510001 -2.5548741e+38
0.25463051 -0.15581831 1.8550001 -2.4881517e+38
0.26026401 -0.15614453 1.8590001 -2.5148405e+38
0.266204 -0.15663856 1.8650001 -2.6883182e+38
0.2723214 -0.15721637 1.8720001 -2.7950734e+38
0.27847612 -0.15779395 1.8790001 -2.6883182e+38
0.28466818 -0.15837131 1.886 -2.6082518e+38
0.29105127 -0.15903245 1.8940001 -2.5948556e+38
0.29794633 -0.15994525 1.9050001 -2.6750782e+38
0.3060146 -0.16144548 1.9230001 -2.4617762e+38
0 0 0 -1.7014118e+38
0 0 0 -1.7014118e+38
0 0 0 -1.7014118e+38
0 0 0 -1.7014118e+38
0 0 0 -1.7014118e+38
0 0 0 -1.7014118e+38
0 0 0 -1.7014118e+38
0 0 0 -1.7014118e+38
0 0 0 -1.7014118e+38
0 0 0 -1.7014118e+38
0 0 0 -1.7014118e+38
0 0 0 -1.7014118e+38
0 0 0 -1.7014118e+38
-0.028624684 -0.18201576 2.095 -2.9023514e+38
-0.022649113 -0.18027927 2.075 -2.6753399e+38
-0.016865047 -0.17941132 2.0650001 -2.5816674e+38
-0.011173804 -0.1791513 2.062 -2.5548741e+38
-0.0054936628 -0.17871726 2.0570002 -2.5815629e+38
0.00015870928 -0.17793544 2.0480001 -2.715007e+38
0.005758788 -0.17706649 2.0380001 -2.5148409e+38
0.011331746 -0.17663169 2.033 -2.4748077e+38
0.016902143 -0.1764573 2.0310001 -2.4615677e+38
0.022461478 -0.17628266 2.029 -2.4482233e+38
0.027995905 -0.17602092 2.026 -2.3548125e+38
0.033497158 -0.17567202 2.0220001 -2.3280722e+38
0.038995609 -0.17540981 2.0190001 -2.3547614e+38
0.044521533 -0.1753211 2.0180001 -2.3147282e+38
0.050066583 -0.175319 2.0180001 -2.3280209e+38
0.055583868 -0.1752298 2.0170002 -2.2879876e+38
0.061095417 -0.17514037 2.016 -2.3280209e+38
0.066535115 -0.17487694 2.013 -2.3146769e+38
0.072029665 -0.17478703 2.0120001 -2.2614035e+38
0.077518418 -0.17469688 2.0110002 -2.234663e+38
0.083125234 -0.17486711 2.013 -2.2480078e+38
0.088698663 -0.17495024 2.0140002 -2.1680456e+38
0.094183631 -0.17485934 2.013 -2.1547012e+38
0.099712275 -0.17485516 2.013 -2.1680971e+38
0.10497911 -0.17441641 2.0080001 -2.2080259e+38
0.10928258 -0.17250083 1.9860001 -2.6618381e+38
0.11288708 -0.16971661 1.9540001 -2.6617336e+38
0.11686006 -0.16771398 1.9310001 -2.6883695e+38
0.12083279 -0.16588496 1.9100001 -2.795073e+38
0.12435971 -0.16362159 1.8840001 -2.7683842e+38
0.12808713 -0.1617924 1.863 -2.6482846e+38
0.13248529 -0.16091838 1.853 -2.5281849e+38
0.13712497 -0.1603916 1.8470001 -2.5148409e+38
0.14180817 -0.15995146 1.8420001 -2.5281336e+38
0.14662282 -0.15968482 1.8390001 -2.4615677e+38
0.15150294 -0.15950486 1.8370001 -2.4615677e+38
0.15637146 -0.15932468 1.835 -2.4749122e+38
0.16114046 -0.15905754 1.8320001 -2.4615677e+38
0.16589238 -0.1587902 1.8290001 -2.4749119e+38
0.1708141 -0.15869634 1.8280001 -2.4614633e+38
0.17572971 -0.15860231 1.8270001 -2.4614116e+38
0.18063912 -0.15850809 1.8260001 -2.4482233e+38
0.18544075 -0.15832691 1.8240001 -2.4348789e+38
0.19023068 -0.15814555 1.8220001 -2.4482233e+38
0.19543755 -0.15831122 1.8240001 -2.4348789e+38
0.20054476 -0.15838987 1.825 -2.474756e+38
0.20565672 -0.15846837 1.8260001 -2.474756e+38
0.21065803 -0.1584599 1.8260001 -2.5014448e+38
0.21601291 -0.15871161 1.8290001 -2.4881521e+38
0.22138342 -0.15896311 1.8320001 -2.4748077e+38
0.22664601 -0.15912765 1.8340001 -2.4881521e+38
0.23204505 -0.15937877 1.8370001 -2.5281853e+38
0.23771781 -0.15980323 1.8420001 -2.5148409e+38
0.24341707 -0.16022745 1.8470001 -2.5148409e+38
0.24873936 -0.16039126 1.8490001 -2.5281853e+38
0.25448343 -0.16081509 1.8540001 -2.4881521e+38
0.26025403 -0.16123874 1.8590001 -2.5014965e+38
0.26647931 -0.16192237 1.8670001 -2.4748077e+38
0.27260196 -0.16251904 1.8740001 -2.6215962e+38
0.27861378 -0.16302878 1.8800001 -2.8084178e+38
0.28480843 -0.163625 1.8870001 -2.7683846e+38
0.29104039 -0.16422103 1.8940001 -2.5950116e+38
0.29793531 -0.16516365 1.9050001 -2.6218049e+38
0.30568501 -0.16653948 1.9210001 -2.4885693e+38
0 0 0 -1.7014118e+38
0 0 0 -1.7014118e+38
0 0 0 -1.7014118e+38
0 0 0 -1.7014118e+38
0 0 0 -1.7014118e+38
0 0 0 -1.7014118e+38
0 0 0 -1.7014118e+38
0 0 0 -1.7014118e+38
0 0 0 -1.7014118e+38
0 0 0 -1.7014118e+38
0 0 0 -1.7014118e+38
0 0 0 -1.7014118e+38
0 0 0 -1.7014118e+38
-0.028773695 -0.18875067 2.1060002 -3.089173e+38
-0.02269176 -0.18633194 2.079 -2.7288733e+38
-0.016880626 -0.18525733 2.0670002 -2.6084603e+38
-0.011162466 -0.18463059 2.0600002 -2.5548737e+38
-0.0054934165 -0.18436207 2.0570002 -2.5281853e+38
0.00015885716 -0.18373483 2.0500002 -2.5548741e+38
0.0057698316 -0.18301767 2.0420001 -2.6883182e+38
0.01134796 -0.1824795 2.036 -2.4347745e+38
0.016918028 -0.18220997 2.033 -2.4215345e+38
0.022482611 -0.18202986 2.0310001 -2.4615677e+38
0.028036105 -0.18184945 2.029 -2.4615677e+38
0.033561926 -0.18157919 2.026 -2.3681054e+38
0.039051808 -0.18121904 2.0220001 -2.341417e+38
0.044541605 -0.18094827 2.0190001 -2.341417e+38
0.050039537 -0.1807669 2.0170002 -2.3146765e+38
0.055553824 -0.18067487 2.016 -2.301332e+38
0.061062399 -0.18058263 2.0150001 -2.3146769e+38
0.066532157 -0.18040051 2.013 -2.3547101e+38
0.072062261 -0.18039739 2.013 -2.3014367e+38
0.07759206 -0.18039401 2.013 -2.2480074e+38
0.083204143 -0.18056965 2.0150001 -2.2213185e+38
0.088738777 -0.18056577 2.0150001 -2.1680456e+38
0.094319835 -0.18065126 2.016 -2.1413568e+38
0.099905998 -0.18073654 2.0170002 -2.1280124e+38
0.10528815 -0.18046314 2.0140002 -2.1680969e+38
0.10988305 -0.17893508 1.9970001 -2.5550313e+38
0.11351761 -0.1760629 1.9650002 -2.6617338e+38
0.11721803 -0.17354901 1.937 -2.6883695e+38
0.12101729 -0.17139344 1.9130001 -2.795073e+38
0.1244863 -0.16896901 1.886 -2.7550398e+38
0.12821908 -0.16708206 1.8650001 -2.6082513e+38
0.13247955 -0.16600128 1.853 -2.5014965e+38
0.13726752 -0.16563702 1.8490001 -2.4881521e+38
0.14195602 -0.16518299 1.8440001 -2.5014448e+38
0.14669624 -0.16481838 1.84 -2.5415297e+38
0.15166135 -0.16472229 1.8390001 -2.5149454e+38
0.15662041 -0.16462603 1.8380001 -2.501601e+38
0.16139746 -0.16435044 1.835 -2.5281336e+38
0.16597603 -0.16389556 1.83 -2.5282898e+38
0.17090029 -0.16379875 1.8290001 -2.4881004e+38
0.17581846 -0.16370177 1.8280001 -2.4480672e+38
0.18073043 -0.16360459 1.8270001 -2.4614116e+38
0.18553461 -0.16341768 1.825 -2.474756e+38
0.19053593 -0.16340971 1.825 -2.4347228e+38
0.19553655 -0.16340154 1.825 -2.474756e+38
0.20064631 -0.16348271 1.8260001 -2.4213784e+38
0.20576085 -0.16356373 1.8270001 -2.474756e+38
0.2108801 -0.16364454 1.8280001 -2.4614116e+38
0.21635835 -0.16399372 1.8320001 -2.5014965e+38
0.22161607 -0.16416366 1.8340001 -2.4614633e+38
0.22700751 -0.16442293 1.8370001 -2.474756e+38
0.23241459 -0.164682 1.84 -2.5147892e+38
0.23822442 -0.16520935 1.8460001 -2.5548224e+38
0.24353914 -0.16537856 1.848 -2.5147892e+38
0.24886397 -0.16554756 1.8500001 -2.5148409e+38
0.2547479 -0.16607429 1.8560001 -2.4881521e+38
0.26080373 -0.16669028 1.863 -2.5148409e+38
0.26703975 -0.16739552 1.8710001 -2.4614633e+38
0.27273682 -0.16774267 1.8750001 -2.4748077e+38
0.27860299 -0.16817908 1.8800001 -2.5815629e+38
0.28464648 -0.16870473 1.886 -2.7683846e+38
0.29087558 -0.16931964 1.8930001 -2.8085221e+38
0.29776755 -0.17029206 1.904 -2.7285601e+38
0.30519605 -0.17153254 1.9180001 -2.4351917e+38
0 0 0 -1.7014118e+38
0 0 0 -1.7014118e+38
0 0 0 -1.7014118e+38
0 0 0 -1.7014118e+38
0 0 0 -1.7014118e+38
0 0 0 -1.7014118e+38
0 0 0 -1.7014118e+38
0 0 0 -1.7014118e+38
0 0 0 -1.7014118e+38
0 0 0 -1.7014118e+38
0 0 0 -1.7014118e+38
0 0 0 -1.7014118e+38
0 0 0 -1.7014118e+38
-0.028827017 -0.19489856 2.1100001 nan
-0.022723455 -0.1923134 2.082 -2.6622038e+38
-0.016896181 -0.19111353 2.069 -2.7285601e+38
-0.011156534 -0.19019049 2.059 -2.6082513e+38
-0.0054851528 -0.18972903 2.0540001 -2.5148405e+38
0.00015884984 -0.18935966 2.0500002 -2.5548737e+38
0.0057752174 -0.18880531 2.0440001 -2.5415293e+38
0.011369732 -0.18843544 2.0400002 -2.6616294e+38
0.016933894 -0.18797292 2.0350001 -2.4615675e+38
0.022503715 -0.18778725 2.033 -2.3948457e+38
0.02806245 -0.18760134 2.0310001 -2.4081901e+38
0.033610076 -0.18741517 2.029 -2.4882566e+38
0.03912726 -0.18713637 2.026 -2.4348274e+38
0.044605736 -0.18676494 2.0220001 -2.3814502e+38
0.050086856 -0.18648563 2.0190001 -2.3013838e+38
0.055606395 -0.18639085 2.0180001 -2.2879876e+38
0.061120212 -0.18629578 2.0170002 -2.3146765e+38
0.066595212 -0.18610808 2.0150001 -2.2880923e+38
0.072166353 -0.18619722 2.016 -2.2347147e+38
0.077704154 -0.18619375 2.016 -2.3147294e+38
0.083282933 -0.1862824 2.0170002 -2.2613518e+38
0.088822819 -0.18627843 2.0170002 -2.2080788e+38
0.094409123 -0.18636656 2.0180001 -2.1680456e+38
0.10000054 -0.18645445 2.0190001 -2.1413568e+38
0.10544021 -0.18626504 2.0170002 -2.1414083e+38
0.11031826 -0.18515193 2.0050001 -2.36821e+38
0.11403239 -0.18228415 1.9740001 -2.6618381e+38
0.11751533 -0.17932393 1.9420002 -2.7684885e+38
0.12139141 -0.17719471 1.9190001 -2.688422e+38
0.12487674 -0.17469606 1.8920001 -2.6884224e+38
0.12855709 -0.17265899 1.8700001 -2.7418003e+38
0.13268811 -0.17136045 1.8560001 -2.4882564e+38
0.13733564 -0.17080042 1.8500001 -2.5014965e+38
0.14202669 -0.17033249 1.845 -2.5415297e+38
0.14676948 -0.16995674 1.8410001 -2.4881521e+38
0.1518196 -0.16995007 1.8410001 -2.5415297e+38
0.15669872 -0.16975854 1.8390001 -2.5147892e+38
0.16147833 -0.16947456 1.8360001 -2.4881004e+38
0.16605948 -0.16900577 1.8310001 -2.5147892e+38
0.17098628 -0.168906 1.83 -2.474756e+38
0.175907 -0.16880606 1.8290001 -2.4614116e+38
0.18082155 -0.16870594 1.8280001 -2.4881004e+38
0.18562828 -0.16851334 1.8260001 -2.474756e+38
0.19073656 -0.16859743 1.8270001 -2.4614116e+38
0.1958496 -0.16868128 1.8280001 -2.4881004e+38
0.20107727 -0.16885725 1.83 -2.4215343e+38
0.20608994 -0.16884847 1.83 -2.4482233e+38
0.2113326 -0.16902404 1.8320001 -2.5014965e+38
0.2167035 -0.16929165 1.835 -2.474756e+38
0.22196928 -0.16946682 1.8370001 -2.4614116e+38
0.22736873 -0.16973403 1.84 -2.5014448e+38
0.23278385 -0.17000107 1.8430001 -2.5014448e+38
0.2382146 -0.17026789 1.8460001 -2.5147892e+38
0.24352908 -0.17044225 1.848 -2.5281336e+38
0.24871925 -0.17052425 1.8490001 -2.5014448e+38
0.25460026 -0.17106718 1.8550001 -2.5014965e+38
0.2606532 -0.17170207 1.8620001 -2.6883182e+38
0.26674351 -0.17233671 1.8690001 -2.5548741e+38
0.27258036 -0.17278676 1.8740001 -2.4214301e+38
0.27859184 -0.17332877 1.8800001 -2.4080339e+38
0.28448427 -0.17377837 1.8850001 -2.5282898e+38
0.29086411 -0.17450434 1.8930001 -2.6750782e+38
0.29791227 -0.17559877 1.9050001 -2.9020374e+38
0.30518416 -0.17678508 1.9180001 -2.4218473e+38
0 0 0 -1.7014118e+38
0 0 0 -1.7014118e+38
0 0 0 -1.7014118e+38
0 0 0 -1.7014118e+38
0 0 0 -1.7014118e+38
0 0 0 -1.7014118e+38
0 0 0 -1.7014118e+38
0 0 0 -1.7014118e+38
0 0 0 -1.7014118e+38
0 0 0 -1.7014118e+38
0 0 0 -1.7014118e+38
-0.022776956 -0.19850084 2.0870001 -2.6354632e+38
-0.016936213 -0.19726533 2.0740001 -2.7419045e+38
-0.011161426 -0.19593441 2.0600002 -2.661629e+38
-0.0054848935 -0.19536412 2.0540001 -2.5682699e+38
0.00015876484 -0.19488865 2.049 -2.5549254e+38
0.0057805944 -0.19460317 2.046 -2.5682181e+38
0.011385914 -0.19431743 2.043 -2.5682181e+38
0.016966378 -0.19393629 2.039 -2.5815629e+38
0.022524791 -0.19355489 2.0350001 -2.5148409e+38
0.028061125 -0.19317324 2.0310001 -2.3815013e+38
0.033608489 -0.19298154 2.029 -2.4081901e+38
0.03916404 -0.19288468 2.0280001 -2.3947942e+38
0.044669814 -0.19259736 2.0250001 -2.4481718e+38
0.050183721 -0.19240488 2.023 -2.4214834e+38
0.055658884 -0.19211702 2.02 -2.3814502e+38
0.061177932 -0.19201913 2.0190001 -2.301332e+38
0.066625141 -0.19173078 2.016 -2.2747475e+38
0.072234571 -0.19191767 2.0180001 -2.2480591e+38
0.077777602 -0.19191411 2.0180001 -2.234663e+38
0.083444186 -0.19219559 2.0210001 -2.2480078e+38
0.088950768 -0.19209641 2.02 -2.1680456e+38
0.094591834 -0.19228226 2.0220001 -2.1547012e+38
0.10009494 -0.1921826 2.0210001 -2.1547012e+38
0.10553986 -0.19198756 2.0190001 -2.1413568e+38
0.11053321 -0.19103159 2.0090001 -2.2881961e+38
0.11437369 -0.1882688 1.9800001 -2.6217533e+38
0.11775193 -0.18503049 1.9460001 -2.7551445e+38
0.12157558 -0.18274297 1.9220001 -2.675078e+38
0.12520099 -0.18036024 1.8970001 -2.7017668e+38
0.12882616 -0.17816761 1.8740001 -2.6750782e+38
0.1328965 -0.17673546 1.8590001 -2.5282896e+38
0.13755205 -0.17615877 1.853 -2.5415297e+38
0.14217418 -0.17558193 1.8470001 -2.5281849e+38
0.14700198 -0.17529009 1.8440001 -2.5281849e+38
0.1518952 -0.17509308 1.8420001 -2.5548741e+38
0.15677686 -0.17489593 1.84 -2.5281336e+38
0.161559 -0.17460349 1.8370001 -2.5147892e+38
0.16614272 -0.17412081 1.8320001 -2.541478e+38
0.17107207 -0.1740181 1.8310001 -2.4480672e+38
0.17589915 -0.17382018 1.8290001 -2.4614116e+38
0.18081351 -0.1737171 1.8280001 -2.5014448e+38
0.18592502 -0.1738039 1.8290001 -2.4482233e+38
0.19104131 -0.17389049 1.83 -2.4348789e+38
0.19605526 -0.17388186 1.83 -2.4482233e+38
0.20117834 -0.17396803 1.8310001 -2.4615675e+38
0.20630622 -0.17405404 1.8320001 -2.4749119e+38
0.21178481 -0.17442484 1.8360001 -2.5016008e+38
0.21716651 -0.17470042 1.8390001 -2.4749119e+38
0.22256386 -0.17497581 1.8420001 -2.5014448e+38
0.22772969 -0.17506099 1.8430001 -2.4881004e+38
0.23290025 -0.175146 1.8440001 -2.474756e+38
0.23820445 -0.17532578 1.8460001 -2.5015494e+38
0.24365057 -0.17560036 1.8490001 -2.5948556e+38
0.2489778 -0.17577977 1.8510001 -2.4882566e+38
0.2547268 -0.17624389 1.8560001 -2.4614116e+38
0.26036239 -0.17661282 1.8600001 -2.5949073e+38
0.26644704 -0.1772664 1.8670001 -2.7282997e+38
0.27242374 -0.1778248 1.8730001 -2.5948556e+38
0.2787286 -0.1785728 1.881 -2.4480672e+38
0.28477454 -0.17913075 1.8870001 -2.4480672e+38
0.29100597 -0.17978337 1.8940001 -2.4348789e+38
0.29805663 -0.18091036 1.9060001 -2.7685933e+38
0.30533105 -0.18213195 1.9190001 -2.5552913e+38
0 0 0 -1.7014118e+38
0 0 0 -1.7014118e+38
0 0 0 -1.7014118e+38
0 0 0 -1.7014118e+38
0 0 0 -1.7014118e+38
0 0 0 -1.7014118e+38
0 0 0 -1.7014118e+38
0 0 0 -1.7014118e+38
0 0 0 -1.7014118e+38
0 0 0 -1.7014118e+38
0 0 0 -1.7014118e+38
0 0 0 -1.7014118e+38
0 0 0 -1.7014118e+38
-0.022863155 -0.20500845 2.095 -2.8088892e+38
-0.016976219 -0.20344371 2.079 -2.71532e+38
-0.01119881 -0.20227015 2.0670002 -2.7418001e+38
-0.0054926383 -0.20129198 2.0570002 -2.6216475e+38
0.00015891211 -0.20070496 2.0510001 -2.5816143e+38
0.0057831397 -0.2003134 2.0470002 -2.5682699e+38
0.01138536 -0.19992153 2.043 -2.6083031e+38
0.016965555 -0.19952941 2.039 -2.5148405e+38
0.022534765 -0.19923486 2.036 -2.5815629e+38
0.028073581 -0.19884221 2.0320001 -2.474756e+38
0.033590298 -0.19844928 2.0280001 -2.4215345e+38
0.039142832 -0.19834964 2.0270002 -2.3948457e+38
0.044689711 -0.19824974 2.026 -2.3681054e+38
0.050280523 -0.19834526 2.0270002 -2.4081386e+38
0.05579396 -0.19814695 2.0250001 -2.4615162e+38
0.06129618 -0.1979484 2.023 -2.408139e+38
0.06675411 -0.19765171 2.02 -2.3547614e+38
0.072302669 -0.19764833 2.02 -2.2879876e+38
0.077812403 -0.19754684 2.0190001 -2.2213185e+38
0.083398886 -0.19764075 2.02 -2.2213185e+38
0.088946506 -0.19763657 2.02 -2.1680456e+38
0.094634093 -0.19792566 2.023 -2.1680456e+38
0.10018919 -0.19792092 2.023 -2.1147722e+38
0.10563936 -0.1977203 2.0210001 -2.1280124e+38
0.110693 -0.19683459 2.0120001 -2.127959e+38
0.1145993 -0.19408995 1.9840001 -2.6884754e+38
0.11786736 -0.19056262 1.9480001 -2.701767e+38
0.12182283 -0.18840475 1.9260001 -2.7284557e+38
0.12526108 -0.1856599 1.8980001 -2.7284557e+38
0.12895757 -0.18350185 1.876 -2.6617336e+38
0.13296175 -0.18193059 1.8600001 -2.5281849e+38
0.13761985 -0.1813373 1.8540001 -2.5415293e+38
0.14232148 -0.18084164 1.8490001 -2.5281849e+38
0.14715454 -0.18054138 1.8460001 -2.5281849e+38
0.15188813 -0.18014315 1.8420001 -2.5415293e+38
0.15668441 -0.17984252 1.8390001 -2.5148409e+38
0.16155154 -0.17963947 1.8370001 -2.5415297e+38
0.16640711 -0.17943624 1.835 -2.5548224e+38
0.17125107 -0.17923282 1.8330001 -2.5014448e+38
0.17608345 -0.17902921 1.8310001 -2.5014448e+38
0.18090418 -0.17882539 1.8290001 -2.4614116e+38
0.18601823 -0.17891471 1.83 -2.4482233e+38
0.19124143 -0.17910157 1.8320001 -2.4482233e+38
0.19636782 -0.17919049 1.8330001 -2.4882566e+38
0.20138906 -0.17918143 1.8330001 -2.4482231e+38
0.2065222 -0.17926992 1.8340001 -2.4615675e+38
0.21212144 -0.17974919 1.8390001 -2.5016008e+38
0.21751112 -0.18003275 1.8420001 -2.5016008e+38
0.22291647 -0.18031605 1.845 -2.4615677e+38
0.22809035 -0.18040374 1.8460001 -2.5014448e+38
0.23326895 -0.18049121 1.8470001 -2.4215345e+38
0.23832311 -0.18048078 1.8470001 -2.4348789e+38
0.24364002 -0.1806656 1.8490001 -2.5549271e+38
0.24896704 -0.18085022 1.8510001 -2.4749122e+38
0.25457865 -0.18123007 1.8550001 -2.4749122e+38
0.26007128 -0.18151198 1.858 -2.5548224e+38
0.26629299 -0.18228213 1.8660001 -2.6482333e+38
0.27255765 -0.18305205 1.8740001 -2.8084178e+38
0.27871689 -0.18372403 1.881 -2.7683329e+38
0.28476265 -0.18429808 1.8870001 -2.474756e+38
0.2911475 -0.18506725 1.8950001 -2.3816056e+38
0.29835704 -0.18632443 1.9080001 -2.4617762e+38
0.3059549 -0.1877766 1.9230001 -2.4885693e+38
0 0 0 -1.7014118e+38
0 0 0 -1.7014118e+38
0 0 0 -1.7014118e+38
0 0 0 -1.7014118e+38
0 0 0 -1.7014118e+38
0 0 0 -1.7014118e+38
0 0 0 -1.7014118e+38
0 0 0 -1.7014118e+38
0 0 0 -1.7014118e+38
0 0 0 -1.7014118e+38
0 0 0 -1.7014118e+38
0 0 0 -1.7014118e+38
0 0 0 -1.7014118e+38
-0.022982061 -0.21186094 2.1060002 -2.8088896e+38
-0.017048862 -0.21005115 2.0880001 -2.8620569e+38
-0.011252429 -0.20894526 2.0770001 -2.7418003e+38
-0.0055137253 -0.20773847 2.0650001 -2.7017139e+38
0.00015929159 -0.20683323 2.056 -2.5549254e+38
0.0057856771 -0.20602828 2.0480001 -2.5549254e+38
0.011384794 -0.20552483 2.043 -2.5548737e+38
0.016973034 -0.20522235 2.0400002 -2.5281849e+38
0.022555782 -0.20502014 2.0380001 -2.5281849e+38
0.028127445 -0.20481767 2.036 -2.5681668e+38
0.033621758 -0.20421255 2.0300002 -2.4614116e+38
0.039140891 -0.20390894 2.0270002 -2.3815013e+38
0.044687491 -0.20380621 2.026 -2.3681569e+38
0.050302833 -0.20400502 2.0280001 -2.3280722e+38
0.055901404 -0.20410296 2.029 -2.354761e+38
0.061474942 -0.20410001 2.029 -2.3947942e+38
0.066916049 -0.20369445 2.0250001 -2.408139e+38
0.072442286 -0.20359039 2.0240002 -2.3280726e+38
0.077885643 -0.20328487 2.0210001 -2.2614035e+38
0.083477356 -0.20338143 2.0220001 -2.2079741e+38
0.088986173 -0.20327656 2.0210001 -2.1947344e+38
0.094723009 -0.20367433 2.0250001 -2.1680456e+38
0.10028334 -0.20366947 2.0250001 -2.1414612e+38
0.10573874 -0.20346323 2.023 -2.114668e+38
0.11090764 -0.20275384 2.016 -2.0613419e+38
0.1150558 -0.20033458 1.9920001 -2.661787e+38
0.11852718 -0.19701008 1.9590001 -2.6750782e+38
0.12206991 -0.19408779 1.9300001 -2.7551441e+38
0.12532102 -0.1909643 1.899 -2.7818333e+38
0.12895134 -0.18864521 1.876 -2.6883182e+38
0.13316979 -0.18733162 1.863 -2.5281849e+38
0.13783592 -0.1867217 1.8570001 -2.5148405e+38
0.14246862 -0.18611161 1.8510001 -2.5281849e+38
0.14722724 -0.18570243 1.8470001 -2.5415293e+38
0.15196335 -0.18529303 1.8430001 -2.5815625e+38
0.15684736 -0.18508454 1.8410001 -2.5281849e+38
0.1618077 -0.18497634 1.84 -2.5281853e+38
0.16667129 -0.18476744 1.8380001 -2.5014965e+38
0.17142984 -0.18445778 1.835 -2.5014965e+38
0.17636369 -0.18434903 1.8340001 -2.4614116e+38
0.18129133 -0.18424001 1.8330001 -2.474756e+38
0.18631449 -0.18423136 1.8330001 -2.4614116e+38
0.19144136 -0.18432298 1.8340001 -2.4081901e+38
0.19646585 -0.18431389 1.8340001 -2.4749122e+38
0.20148966 -0.18430461 1.8340001 -2.4482231e+38
0.20662531 -0.18439561 1.835 -2.4749119e+38
0.21222708 -0.18488833 1.84 -2.4749119e+38
0.21773739 -0.18528035 1.8440001 -2.5149452e+38
0.22302723 -0.18547119 1.8460001 -2.4749119e+38
0.22820362 -0.18556133 1.8470001 -2.4482231e+38
0.23351106 -0.18575177 1.8490001 -2.3948457e+38
0.23882858 -0.18594198 1.8510001 -2.4615677e+38
0.24415623 -0.18613201 1.853 -2.4615677e+38
0.24949406 -0.18632182 1.8550001 -2.4615677e+38
0.25497913 -0.18661188 1.858 -2.4749122e+38
0.26033986 -0.1868013 1.8600001 -2.5014448e+38
0.26656681 -0.18759306 1.868 -2.5681668e+38
0.27283669 -0.18838459 1.876 -2.6349406e+38
0.27885306 -0.18897502 1.8820001 -2.7950217e+38
0.28475043 -0.18946484 1.8870001 -2.8217105e+38
0.2911351 -0.1902556 1.8950001 -2.39495e+38
0.29865715 -0.19174886 1.9100001 -2.4083986e+38
0.30594203 -0.19304098 1.9230001 -2.3952631e+38
0 0 0 -1.7014118e+38
0 0 0 -1.7014118e+38
0 0 0 -1.7014118e+38
0 0 0 -1.7014118e+38
0 0 0 -1.7014118e+38
0 0 0 -1.7014118e+38
0 0 0 -1.7014118e+38
0 0 0 -1.7014118e+38
0 0 0 -1.7014118e+38
0 0 0 -1.7014118e+38
0 0 0 -1.7014118e+38
-0.017137807 -0.2169138 2.0990002 -2.7821462e+38
-0.011311447 -0.21577778 2.0880001 -2.7152157e+38
-0.0055321348 -0.21412474 2.072 -2.6482846e+38
0.00015967085 -0.21298811 2.0610001 -2.6349402e+38
0.0057938574 -0.21195453 2.0510001 -2.5148405e+38
0.011400932 -0.21143737 2.046 -2.5548737e+38
0.016997127 -0.21112661 2.043 -2.5281849e+38
0.02260997 -0.21112561 2.043 -2.5014965e+38
0.028181275 -0.2108143 2.0400002 -2.5148409e+38
0.033702858 -0.21029599 2.0350001 -2.5281853e+38
