# .PCD v0.7 - Point Cloud Data file format
VERSION 0.7
FIELDS x y z rgb
SIZE 4 4 4 4
TYPE F F F F
COUNT 1 1 1 1
WIDTH 1092
HEIGHT 1
VIEWPOINT 0 0 0 1 0 0 0
POINTS 1092
DATA ascii
0.092918538 -0.90489107 2.4290001 nan
0.099336766 -0.90302324 2.424 nan
0.10585874 -0.90227282 2.4220002 nan
0.11190535 -0.89779663 2.4100001 nan
0.11778808 -0.89257526 2.3960001 nan
0.12328301 -0.88511842 2.3760002 nan
0.12899642 -0.87989652 2.3620002 nan
0.13325721 -0.86573404 2.3240001 nan
0.13996369 -0.83033097 2.2290001 -1.8346462e+38
0.1441403 -0.81952095 2.2 -1.9414006e+38
0.14925055 -0.81467086 2.187 -1.9146605e+38
0.15450267 -0.81093818 2.177 -1.8613875e+38
0.16006863 -0.8090679 2.1720002 -1.8214585e+38
0.16537787 -0.8060798 2.164 -1.8346983e+38
0.17095995 -0.80458164 2.1600001 -2.0881889e+38
0.17619254 -0.8015933 2.1520002 -2.1682547e+38
0.18146595 -0.79897726 2.1450002 -2.18139e+38
0.18486719 -0.78853899 2.1170001 -2.2081303e+38
0.18307279 -0.75724208 2.033 -2.0880303e+38
0.18313977 -0.73525769 1.9740001 -2.71532e+38
0.18651402 -0.72742718 1.9530001 -2.7284553e+38
0.19095238 -0.72406638 1.9440001 -2.7418514e+38
0.19574532 -0.72219527 1.9390001 -2.5415297e+38
0.2006145 -0.72069645 1.9350001 -2.4881521e+38
0.20567453 -0.71994251 1.9330001 -2.4482233e+38
0.21105085 -0.72030586 1.9340001 -2.4081901e+38
0.21632063 -0.72029656 1.9340001 -2.4348274e+38
0.22170481 -0.72065955 1.9350001 -2.3814498e+38
0.22685964 -0.72027767 1.9340001 -2.3813455e+38
0.23224892 -0.72064042 1.9350001 -2.4213784e+38
0.23776625 -0.72137564 1.937 -2.5014448e+38
0.24291787 -0.7209934 1.9360001 -2.4881004e+38
0.24780749 -0.71986639 1.9330001 -2.4614116e+38
0.25281149 -0.71911174 1.9310001 -2.4614116e+38
0.25820541 -0.71947426 1.932 -2.4614116e+38
0.26374105 -0.72020924 1.9340001 -2.4348789e+38
0.26900917 -0.72019929 1.9340001 -2.4081901e+38
0.27427709 -0.72018921 1.9340001 -2.4348789e+38
0.2804122 -0.72241348 1.9400001 -2.4482233e+38
0.28849429 -0.7294786 1.9590001 -2.5150496e+38
0.29982957 -0.74436331 1.9990001 -2.7955438e+38
0.37926847 -0.8929013 2.398 -2.8623715e+38
0.38772982 -0.89735752 2.4100001 nan
0.39511111 -0.89920723 2.4150002 nan
-0.072551459 -0.9099791 2.4250002 nan
-0.065939181 -0.9099828 2.4250002 nan
-0.059498083 -0.9126128 2.4320002 nan
-0.052975267 -0.91449201 2.437 nan
-0.04640612 -0.91599572 2.4410002 nan
-0.039766241 -0.91637319 2.4420002 nan
-0.033025961 -0.91412359 2.4360001 nan
-0.026394181 -0.91450036 2.437 nan
-0.019724505 -0.91337585 2.434 nan
-0.013098051 -0.91412729 2.4360001 nan
-0.0064527225 -0.9137525 2.4350002 nan
0.00018723519 -0.91375273 2.4350002 nan
0.0068299961 -0.91412771 2.4360001 nan
0.013489265 -0.91525292 2.4390001 nan
0.020131851 -0.91487682 2.4380002 nan
0.026746986 -0.91374975 2.4350002 nan
0.033318311 -0.91187197 2.4300001 nan
0.039993834 -0.91299576 2.4330001 nan
0.046628173 -0.91299355 2.4330001 nan
0.053218681 -0.91224033 2.4310002 nan
0.059724364 -0.91036111 2.4260001 nan
0.066257402 -0.90923202 2.4230001 nan
0.07289429 -0.9096036 2.424 nan
0.07930696 -0.90734822 2.4180002 nan
0.085615769 -0.90434194 2.4100001 nan
0.091919109 -0.90171063 2.4030001 nan
0.098061241 -0.89795321 2.3930001 nan
0.10393021 -0.89231938 2.378 nan
0.10939226 -0.88405877 2.3560002 nan
0.11473421 -0.87579781 2.3340001 nan
0.11995608 -0.8675366 2.312 -2.5955363e+38
0.12527633 -0.86077642 2.2940001 -1.8748345e+38
0.12986757 -0.84988832 2.2650001 -2.1816508e+38
0.13394018 -0.83674884 2.23 -2.8889043e+38
0.13863808 -0.82848722 2.2080002 -2.3684214e+38
0.14360899 -0.82247674 2.1920002 -2.0081226e+38
0.14897017 -0.81909263 2.1830001 -1.8746273e+38
0.15421122 -0.81533313 2.1730001 -1.8213543e+38
0.15976603 -0.81344956 2.1680002 -1.8081141e+38
0.16521703 -0.81119055 2.1620002 -1.8346983e+38
0.17071427 -0.80930644 2.1570001 -2.1949441e+38
0.17602038 -0.80667198 2.1500001 -2.2349767e+38
0.18128817 -0.80403721 2.1430001 -2.0879791e+38
0.1847712 -0.79389864 2.1160002 -2.114668e+38
0.18270412 -0.76124889 2.029 -2.1014791e+38
0.18238918 -0.7376042 1.9660001 -2.7286128e+38
0.18574156 -0.72971714 1.9450001 -2.6751823e+38
0.19055089 -0.72783285 1.9400001 -2.5950112e+38
0.19543375 -0.72632372 1.9360001 -2.4482233e+38
0.20039833 -0.72518963 1.9330001 -2.5014448e+38
0.20524001 -0.72368032 1.9290001 -2.4348274e+38
0.21071444 -0.7244218 1.9310001 -2.4081386e+38
0.21597593 -0.7244128 1.9310001 -2.3814498e+38
0.22146636 -0.72515404 1.9330001 -2.3814498e+38
0.22673298 -0.72514492 1.9330001 -2.3681054e+38
0.23211947 -0.72551078 1.9340001 -2.3946899e+38
0.23738848 -0.72550148 1.9340001 -2.4614116e+38
0.2424064 -0.72474182 1.932 -2.4881004e+38
0.24741326 -0.72398221 1.9300001 -2.474756e+38
0.25254002 -0.72359771 1.9290001 -2.4215345e+38
0.2577948 -0.72358823 1.9290001 -2.4348789e+38
0.26332217 -0.72432894 1.9310001 -2.4348789e+38
0.26858211 -0.72431946 1.9310001 -2.4082944e+38
0.27426738 -0.72543526 1.9340001 -2.3816056e+38
0.28083605 -0.72880143 1.9430001 -2.4216388e+38
0.28995708 -0.73854423 1.9690001 -2.7019756e+38
0.37830779 -0.89715904 2.3920002 nan
0.38627014 -0.90052307 2.401 nan
0.39297259 -0.90088677 2.4020002 nan
-0.07218872 -0.91200888 2.4130001 nan
-0.065527916 -0.91087848 2.4100001 nan
-0.059103586 -0.91314948 2.4160001 nan
-0.052711673 -0.91655391 2.4250002 nan
-0.046213605 -0.91882432 2.4310002 nan
-0.039519913 -0.91731459 2.427 nan
-0.032820884 -0.9150486 2.421 nan
-0.026219521 -0.91505009 2.421 nan
-0.019610027 -0.91467339 2.4200001 nan
-0.013011339 -0.91467428 2.4200001 nan
-0.0064020371 -0.91316283 2.4160001 nan
0.00018591825 -0.91391903 2.4180002 nan
0.0067931917 -0.91580862 2.4230001 nan
0.013411134 -0.91656399 2.4250002 nan
0.020015195 -0.91618508 2.424 nan
0.026580831 -0.91467208 2.4200001 nan
0.033179466 -0.91467059 2.4200001 nan
0.03972875 -0.91353482 2.4170001 nan
0.046319123 -0.91353256 2.4170001 nan
0.052843776 -0.91239625 2.414 nan
0.059401244 -0.91201538 2.4130001 nan
0.065871172 -0.91050047 2.4090002 nan
0.072469547 -0.91087478 2.4100001 nan
0.078646943 -0.90633541 2.398 nan
0.084545687 -0.89952826 2.3800001 nan
0.09011668 -0.89045298 2.3560002 nan
0.095679626 -0.88251126 2.335 nan
0.1013902 -0.87683719 2.3200002 nan
0.10697243 -0.87078488 2.3040001 -2.4621965e+38
0.11241817 -0.86435443 2.2870002 -1.781529e+38
0.11766732 -0.85716784 2.2680001 -1.9147633e+38
0.12270354 -0.84922528 2.2470002 nan
0.1277398 -0.84203845 2.2280002 nan
0.13255222 -0.83409542 2.207 -1.9413998e+38
0.13800345 -0.83068764 2.1980002 -1.9414004e+38
0.14320895 -0.82614565 2.1860001 -2.0348114e+38
0.14869007 -0.8234933 2.1790001 -1.8480427e+38
0.15370712 -0.8185733 2.1660001 -1.834803e+38
0.1594637 -0.81781006 2.164 -1.8081141e+38
0.16520926 -0.81704676 2.1620002 -1.8213539e+38
0.17070632 -0.81514943 2.1570001 -2.0081226e+38
0.1759304 -0.81211829 2.1490002 -2.2349252e+38
0.1811107 -0.80908698 2.141 -2.2215277e+38
0.18476285 -0.79963136 2.1160002 -2.1147722e+38
0.18170545 -0.7625894 2.0180001 -1.9947247e+38
0.18182446 -0.74066377 1.96 -2.7286133e+38
0.18554242 -0.73423165 1.9430001 -2.528394e+38
0.19034617 -0.73233414 1.9380001 -2.4615675e+38
0.19512253 -0.73043656 1.9330001 -2.3681569e+38
0.2000788 -0.72929466 1.9300001 -2.3681569e+38
0.205125 -0.72853059 1.9280001 -2.3014876e+38
0.21048747 -0.72889996 1.9290001 -2.2881432e+38
0.21585524 -0.72926915 1.9300001 -2.3281768e+38
0.22111374 -0.72926044 1.9300001 -2.3415212e+38
0.22648938 -0.72962952 1.9310001 -2.3147282e+38
0.23175034 -0.72962075 1.9310001 -2.3681054e+38
0.2370111 -0.72961175 1.9310001 -2.3814498e+38
0.2420208 -0.72884709 1.9290001 -2.4213784e+38
0.24727587 -0.72883821 1.9290001 -2.4213784e+38
0.25239986 -0.72845125 1.9280001 -2.4081901e+38
0.25751823 -0.7280643 1.927 -2.4348789e+38
0.26290381 -0.72843313 1.9280001 -2.4082944e+38
0.26829466 -0.72880191 1.9290001 -2.4082944e+38
0.27454168 -0.73143744 1.9360001 -2.4217428e+38
0.28198299 -0.73709542 1.9510001 -2.5018095e+38
0.29230374 -0.74993151 1.9850001 -2.8755571e+38
0.36494309 -0.88703996 2.348 -2.6754965e+38
0.3763988 -0.89911824 2.3800001 nan
0.38384596 -0.90137422 2.3860002 nan
0.39050767 -0.90174133 2.3870001 nan
-0.078274317 -0.9128288 2.398 nan
-0.071646638 -0.91169053 2.3950002 nan
-0.065198369 -0.91283584 2.398 nan
-0.05880706 -0.91512287 2.404 nan
-0.052448187 -0.91855168 2.4130001 nan
-0.045812074 -0.9174121 2.4100001 nan
-0.039192263 -0.91627222 2.4070001 nan
-0.032615881 -0.91589332 2.4060001 nan
-0.02608824 -0.91703683 2.4090002 nan
-0.019544207 -0.91817993 2.4120002 nan
-0.012956914 -0.91741943 2.4100001 nan
-0.0063752146 -0.91589719 2.4060001 nan
0.0001848324 -0.91513604 2.404 nan
0.0067507946 -0.91665858 2.4080002 nan
0.013310911 -0.91627741 2.4070001 nan
0.019857304 -0.91551524 2.4050002 nan
0.026370801 -0.91399133 2.401 nan
0.032917295 -0.91398978 2.401 nan
0.03943089 -0.91322678 2.3990002 nan
0.04593353 -0.91246325 2.3970001 nan
0.052381434 -0.91093808 2.3930001 nan
0.058881328 -0.91055483 2.3920002 nan
0.065375693 -0.91017097 2.391 nan
0.071744278 -0.90826434 2.3860002 nan
0.077593587 -0.90064746 2.3660002 nan
0.08290749 -0.88846219 2.3340001 nan
0.088314556 -0.87894154 2.309 -2.2887196e+38
0.093872055 -0.87208539 2.2910001 -1.7414964e+38
0.0995498 -0.86713213 2.2780001 -1.7414964e+38
0.10515657 -0.86217874 2.2650001 -3.3159784e+38
0.11069235 -0.85722506 2.2520001 nan
0.11584586 -0.84998721 2.233 nan
0.12105948 -0.84389132 2.217 -1.9547959e+38
0.12635776 -0.8389371 2.204 -1.994777e+38
0.1317652 -0.83512467 2.194 -1.9947774e+38
0.1374319 -0.83321518 2.1890001 -1.9414006e+38
0.1428747 -0.8301636 2.181 -2.0347599e+38
0.14827377 -0.8271119 2.1730001 -1.848147e+38
0.15348713 -0.82329869 2.1630001 -1.8481474e+38
0.15901428 -0.82138848 2.158 -1.8082184e+38
0.16489612 -0.82138127 2.158 -1.8348025e+38
0.17022382 -0.81870949 2.151 -1.8479385e+38
0.17567694 -0.81679881 2.1460001 -2.1549111e+38
0.18084893 -0.81374615 2.138 -2.1549103e+38
0.17935659 -0.75816202 1.9920001 -2.0081208e+38
0.18135285 -0.74407208 1.955 -2.621858e+38
0.18543907 -0.73911667 1.9420002 -2.5017052e+38
0.19033818 -0.7375865 1.9380001 -2.4215345e+38
0.19511445 -0.73567569 1.9330001 -2.3948457e+38
0.20007062 -0.73452592 1.9300001 -2.3681569e+38
0.2052231 -0.73413736 1.9290001 -2.3682096e+38
0.21036997 -0.73374856 1.9280001 -2.3548652e+38
0.21551125 -0.73335975 1.927 -2.3548652e+38
0.22064695 -0.73297089 1.9260001 -2.3281764e+38
0.22601162 -0.73334306 1.927 -2.3281764e+38
0.23114158 -0.73295403 1.9260001 -2.3681054e+38
0.23638868 -0.73294556 1.9260001 -2.3947942e+38
0.24163565 -0.73293698 1.9260001 -2.3815013e+38
0.24701068 -0.73330891 1.927 -2.4347228e+38
0.2521292 -0.73291975 1.9260001 -2.4348789e+38
0.25724217 -0.73253059 1.9250001 -2.4215345e+38
0.26248586 -0.73252195 1.9250001 -2.39495e+38
0.26800764 -0.73327434 1.927 -2.4082942e+38
0.27510002 -0.73821253 1.9400001 -2.4751205e+38
0.28399745 -0.74771678 1.9650002 -2.5418427e+38
0.36508808 -0.89379436 2.3490002 -2.7555629e+38
0.37464869 -0.90139413 2.3690002 nan
0.3823877 -0.90442789 2.3770001 nan
0.38902503 -0.90479845 2.378 nan
-0.077911496 -0.91510558 2.3870001 nan
-0.071284205 -0.91357571 2.3830001 nan
-0.064923331 -0.91549569 2.388 nan
-0.058535129 -0.91741556 2.3930001 nan
-0.052119609 -0.91933507 2.398 nan
-0.045524709 -0.91818732 2.3950002 nan
-0.038978677 -0.91780597 2.3940001 nan
-0.032505836 -0.91934121 2.398 nan
-0.025978668 -0.91972601 2.3990002 nan
-0.019454118 -0.9204939 2.401 nan
-0.012875636 -0.91819441 2.3950002 nan
-0.0063378075 -0.91704482 2.3920002 nan
0.00018367007 -0.91589475 2.3890002 nan
0.006702804 -0.9166612 2.391 nan
0.01319966 -0.91512728 2.3870001 nan
0.019666435 -0.91320974 2.3820002 nan
0.026127886 -0.91205841 2.3790002 nan
0.032600369 -0.91167355 2.378 nan
0.038968757 -0.90898818 2.3710001 nan
0.045318093 -0.90668589 2.365 nan
0.051634673 -0.9043833 2.3590002 nan
0.057918482 -0.90208048 2.3530002 nan
0.064196847 -0.90016055 2.348 nan
0.070267498 -0.89594036 2.3370001 nan
0.075753383 -0.8855859 2.3100002 -3.30253e+38
0.081234075 -0.87676471 2.2870002 -1.7947174e+38
0.08681874 -0.87024343 2.2700002 nan
0.092556462 -0.86602217 2.2590001 nan
0.098277815 -0.86218405 2.2490001 nan
0.10375886 -0.8568123 2.2350001 -1.7946655e+38
0.10911432 -0.85105687 2.22 -1.9280556e+38
0.11459542 -0.8468349 2.2090001 -2.2215277e+38
0.12007102 -0.84299594 2.1990001 -2.1814944e+38
0.125664 -0.84030694 2.1920002 -1.9545882e+38
0.13121867 -0.83761764 2.1850002 -2.0614479e+38
0.13698618 -0.83646154 2.1820002 -2.0481559e+38
0.14254071 -0.83415526 2.1760001 -2.0347599e+38
0.14799416 -0.83146548 2.1690001 -1.8880759e+38
0.15333837 -0.82839203 2.161 -1.8348025e+38
0.15893358 -0.82685196 2.1570001 -1.8214585e+38
0.16465966 -0.8260783 2.1550002 -1.8481474e+38
0.1698999 -0.82300454 2.1470001 -1.8480427e+38
0.1752601 -0.82069719 2.141 -1.8213539e+38
0.17991079 -0.81532329 2.1270001 -2.0881889e+38
0.18020685 -0.7911666 2.0640001 -2.0880834e+38
0.17808862 -0.75819421 1.978 -2.7952836e+38
0.18134537 -0.74937069 1.955 -2.4749649e+38
0.18581343 -0.74591357 1.9460001 -2.4882566e+38
0.19072336 -0.74437284 1.9420002 -2.4615677e+38
0.19561136 -0.74283206 1.9380001 -2.4348789e+38
0.20058107 -0.7416746 1.9350001 -2.3681569e+38
0.20564069 -0.74090016 1.9330001 -2.4215345e+38
0.21058016 -0.73974252 1.9300001 -2.3948457e+38
0.21572682 -0.73935133 1.9290001 -2.3948457e+38
0.22063877 -0.73819357 1.9260001 -2.4081901e+38
0.22588609 -0.73818552 1.9260001 -2.3814498e+38
0.23089325 -0.73741084 1.9240001 -2.3948457e+38
0.23601215 -0.73701948 1.9230001 -2.3815013e+38
0.2413764 -0.73739469 1.9240001 -2.4215345e+38
0.24661773 -0.73738647 1.9240001 -2.4614116e+38
0.25198987 -0.7377615 1.9250001 -2.4348789e+38
0.25710011 -0.73737007 1.9240001 -2.4615677e+38
0.26261383 -0.73812842 1.9260001 -2.3949498e+38
0.26869461 -0.74041963 1.932 -2.4216386e+38
0.27665138 -0.74769288 1.9510001 -2.5553431e+38
0.28716847 -0.76148099 1.9870001 -2.7288729e+38
0.35348865 -0.88715196 2.3150001 -2.7556146e+38
0.3644565 -0.89863902 2.345 nan
0.37258303 -0.90284485 2.3560002 nan
0.38044757 -0.90628433 2.365 nan
0.38787034 -0.90857434 2.3710001 nan
0.39515945 -0.91048127 2.3760002 nan
-0.077483565 -0.91655153 2.3740001 nan
-0.071011655 -0.91655487 2.3740001 nan
-0.06462124 -0.91771621 2.3770001 nan
-0.058287777 -0.9200356 2.3830001 nan
-0.051769409 -0.91965199 2.3820002 nan
-0.045218438 -0.91849607 2.3790002 nan
-0.038667489 -0.91695356 2.375 nan
-0.032273863 -0.91927177 2.381 nan
-0.025793351 -0.91965932 2.3820002 nan
-0.019315457 -0.92043251 2.3840001 nan
-0.012794387 -0.91888887 2.3800001 nan
-0.0062898151 -0.91657281 2.3740001 nan
0.00018212378 -0.91464257 2.3690002 nan
0.0066127828 -0.9107815 2.3590002 nan
0.012972319 -0.9057619 2.3460002 nan
0.019285727 -0.90190029 2.3360002 nan
0.025588518 -0.89958262 2.3300002 nan
0.031817444 -0.8961066 2.3210001 nan
0.038112301 -0.89533269 2.319 nan
0.04433874 -0.89340043 2.3140001 nan
0.050537869 -0.89146775 2.309 nan
0.056562014 -0.88721842 2.2980001 nan
0.062498774 -0.88258255 2.286 nan
0.068430178 -0.87871873 2.276 nan
0.074208625 -0.87369657 2.263 -2.6084625e+38
0.079987146 -0.8694461 2.2520001 -2.5284488e+38
0.085705638 -0.86519557 2.2410002 -2.1548054e+38
0.091445997 -0.86171681 2.2320001 -1.8079058e+38
0.09704981 -0.85746574 2.2210002 -2.0614988e+38
0.10264 -0.85360062 2.2110002 -2.141461e+38
0.10812641 -0.84934908 2.2 -2.2748008e+38
0.11391588 -0.8477999 2.1960001 -2.2080788e+38
0.11957424 -0.84547842 2.1900001 -2.0879793e+38
0.12519978 -0.84315664 2.184 -2.0747392e+38
0.13085255 -0.84122086 2.1790001 -2.1415144e+38
0.13660349 -0.84005678 2.1760001 -2.0748445e+38
0.14240348 -0.83927864 2.174 -1.9813823e+38
0.14798777 -0.83734226 2.1690001 -1.9413493e+38
0.15347371 -0.83501959 2.1630001 -1.8747315e+38
0.1590742 -0.83346891 2.1590002 -1.8748362e+38
0.16457631 -0.83153182 2.154 -1.8614918e+38
0.16973454 -0.82805073 2.1450002 -1.8614914e+38
0.17459799 -0.82341123 2.1330001 -1.8613871e+38
0.17592157 -0.77784556 2.0150001 -2.635204e+38
0.17718117 -0.75969535 1.9680001 -2.8085754e+38
0.18105994 -0.75351202 1.9520001 -2.3414681e+38
0.18580617 -0.75118881 1.9460001 -2.4213784e+38
0.19101061 -0.75079566 1.9450001 -2.4749122e+38
0.19600765 -0.74963039 1.9420002 -2.4482233e+38
0.20098816 -0.74846506 1.9390001 -2.4215345e+38
0.2059522 -0.74729949 1.9360001 -2.4615677e+38
0.21089979 -0.7461341 1.9330001 -2.4482233e+38
0.21583088 -0.74496853 1.9300001 -2.4215345e+38
0.22086005 -0.7441889 1.9280001 -2.4348789e+38
0.22564365 -0.74263728 1.9240001 -2.3815013e+38
0.23064536 -0.74185765 1.9220001 -2.3948457e+38
0.23563604 -0.74107802 1.9200001 -2.4081901e+38
0.24111748 -0.74184215 1.9220001 -2.4348789e+38
0.24622524 -0.74144852 1.9210001 -2.4615677e+38
0.25145829 -0.74144071 1.9210001 -2.4749122e+38
0.25695851 -0.7422049 1.9230001 -2.4482233e+38
0.26342392 -0.7456708 1.932 -2.4483274e+38
0.27035552 -0.75029457 1.9440001 -2.4750162e+38
0.2793375 -0.76032144 1.9700001 -2.6886309e+38
0.35424295 -0.89536756 2.3200002 -3.3695098e+38
0.3639811 -0.90384918 2.342 nan
0.37162507 -0.90692776 2.3500001 nan
0.37899086 -0.90923464 2.3560002 nan
0.38589847 -0.91038388 2.3590002 nan
0.39265606 -0.91114718 2.3610001 nan
-0.077121079 -0.91870552 2.3630002 nan
-0.070679434 -0.91870874 2.3630002 nan
-0.064210549 -0.9183231 2.3620002 nan
-0.057869334 -0.91988093 2.3660002 nan
-0.051419333 -0.91988331 2.3660002 nan
-0.0450073 -0.920663 2.368 nan
-0.038437795 -0.9179433 2.3610001 nan
-0.032001302 -0.91794491 2.3610001 nan
-0.02557561 -0.91833514 2.3620002 nan
-0.019144433 -0.91872489 2.3630002 nan
-0.012713165 -0.91950309 2.365 nan
-0.0062471358 -0.9167819 2.358 nan
0.00018050103 -0.91289413 2.348 nan
0.0065115676 -0.9031741 2.3230002 nan
0.012695258 -0.89267612 2.296 nan
0.018822534 -0.8864547 2.2800002 nan
0.024961388 -0.88373208 2.273 -2.608411e+38
0.031075761 -0.8813982 2.2670002 -2.5012389e+38
0.037173815 -0.87945253 2.2620001 -2.0078093e+38
0.043321226 -0.879062 2.2610002 -2.1278039e+38
0.049463138 -0.87867105 2.26 -2.2078699e+38
0.055402655 -0.87516969 2.2510002 -2.3945873e+38
0.061320383 -0.87205666 2.243 -2.5147383e+38
0.067254573 -0.86972106 2.237 -2.4346716e+38
0.073254362 -0.86855173 2.2340002 -2.528134e+38
0.07906013 -0.86543798 2.2260001 -2.7016622e+38
0.084745735 -0.86154652 2.2160001 -2.2079212e+38
0.090499669 -0.85882133 2.2090001 -2.2346104e+38
0.09625902 -0.85648447 2.2030001 -2.2880406e+38
0.1019856 -0.85414749 2.197 -2.1946297e+38
0.10753193 -0.85064405 2.1880002 -2.3681074e+38
0.11334034 -0.849473 2.1850002 -2.288041e+38
0.1191323 -0.84830177 2.1820002 -2.0079131e+38
0.12490779 -0.8471303 2.1790001 -2.1413055e+38
0.13048668 -0.84479231 2.1730001 -2.1013765e+38
0.13603275 -0.8424542 2.1670001 -2.1013769e+38
0.14180803 -0.84167099 2.1650002 -2.0214149e+38
0.14757223 -0.84088743 2.1630001 -1.9680379e+38
0.15318359 -0.83932632 2.1590002 -1.9546937e+38
0.15884665 -0.83815384 2.1560001 -1.9413493e+38
0.16456966 -0.83736986 2.154 -1.9280049e+38
0.16956949 -0.83308703 2.1430001 -1.9147647e+38
0.17328143 -0.82297283 2.1170001 -1.8880757e+38
0.172961 -0.79497671 2.0450001 -1.7945616e+38
0.17434329 -0.77631056 1.9970001 -2.9421749e+38
0.17726439 -0.7654193 1.9690001 -2.7284559e+38
0.18114582 -0.75919288 1.9530001 -2.3813451e+38
0.18589471 -0.75685382 1.9470001 -2.3815013e+38
0.19080715 -0.755292 1.9430001 -2.3681569e+38
0.19579862 -0.75411886 1.9400001 -2.3948457e+38
0.20098093 -0.7537232 1.9390001 -2.4215345e+38
0.20605128 -0.75293863 1.937 -2.4480672e+38
0.21111064 -0.75215411 1.9350001 -2.4881004e+38
0.2162708 -0.75175828 1.9340001 -2.4614116e+38
0.22108172 -0.7501961 1.9300001 -2.4213784e+38
0.22575347 -0.74824536 1.9250001 -2.4081901e+38
0.23051788 -0.74668336 1.9210001 -2.4348789e+38
0.23562853 -0.74628735 1.9200001 -2.4215345e+38
0.24098454 -0.7466687 1.9210001 -2.4348789e+38
0.24608952 -0.74627268 1.9200001 -2.4615677e+38
0.25145075 -0.74665403 1.9210001 -2.4615677e+38
0.25748545 -0.74897873 1.927 -2.4882566e+38
0.26464346 -0.75441283 1.9410001 -2.5549784e+38
0.27285117 -0.76256758 1.9620001 -2.6618379e+38
0.28174037 -0.77227688 1.9870001 -2.7686976e+38
0.34131673 -0.88457584 2.276 -2.4886752e+38
0.35362363 -0.90011376 2.3160002 nan
0.36226302 -0.90593517 2.3310001 nan
0.36971903 -0.90864754 2.3380001 nan
0.37656969 -0.90980554 2.3410001 nan
0.38327304 -0.91057503 2.3430002 nan
0.38948831 -0.91017866 2.342 nan
-0.076628208 -0.91923487 2.348 nan
-0.070287533 -0.92002094 2.3500001 nan
-0.063827164 -0.91924083 2.348 nan
-0.057475481 -0.92002642 2.3500001 nan
-0.051069371 -0.92002875 2.3500001 nan
-0.044663224 -0.92003083 2.3500001 nan
-0.038159352 -0.91768348 2.3440001 nan
-0.031742372 -0.91690201 2.342 nan
-0.025368758 -0.91729492 2.3430002 nan
-0.018981559 -0.91729587 2.3430002 nan
-0.012610473 -0.91847104 2.3460002 nan
-0.0061912262 -0.91494787 2.3370001 nan
0.00017787942 -0.90594339 2.3140001 nan
0.0063823429 -0.8914575 2.2770002 nan
0.012434831 -0.88049495 2.2490001 -2.1814944e+38
0.018499751 -0.87736225 2.2410002 -2.4080364e+38
0.024542999 -0.87501228 2.2350001 -2.4746538e+38
0.030608341 -0.87422812 2.233 -2.4212761e+38
0.03664631 -0.87305206 2.23 -2.3412097e+38
0.042687066 -0.87226743 2.2280002 -2.3145207e+38
0.048782524 -0.87265694 2.2290001 -2.3011763e+38
0.054784946 -0.87148017 2.2260001 -2.3546054e+38
0.060770962 -0.87030321 2.223 -2.3946378e+38
0.066800706 -0.86990905 2.2220001 -2.4213262e+38
0.072759345 -0.86873156 2.2190001 -2.4881004e+38
0.078595035 -0.86637944 2.2130001 -2.3546567e+38
0.084244974 -0.86246097 2.2030001 -2.314572e+38
0.08996322 -0.85971689 2.1960001 -2.3280209e+38
0.095686927 -0.85736406 2.1900001 -2.3680545e+38
0.1015171 -0.85618544 2.187 -2.3547101e+38
0.10723255 -0.85422379 2.1820002 -2.3147298e+38
0.11302438 -0.85304475 2.1790001 -2.1012193e+38
0.11879978 -0.85186559 2.1760001 -2.1013238e+38
0.12473068 -0.85186064 2.1760001 -2.1679943e+38
0.1304213 -0.85028964 2.1720002 -2.1013769e+38
0.13590167 -0.84754401 2.1650002 -2.0613437e+38
0.1414748 -0.84558105 2.1600001 -2.0080705e+38
0.14722525 -0.84479254 2.158 -1.9679858e+38
0.15296468 -0.84400374 2.1560001 -1.9280049e+38
0.15854573 -0.84243196 2.1520002 -1.9280049e+38
0.16433406 -0.84203428 2.151 -1.9280049e+38
0.16956298 -0.83889633 2.1430001 -1.9147647e+38
0.17270191 -0.82597184 2.1100001 -1.9013674e+38
0.17278536 -0.79973805 2.043 -2.0081739e+38
0.17442413 -0.78211641 1.9980001 -2.755251e+38
0.17743795 -0.77154094 1.9710001 -2.6483892e+38
0.18132477 -0.76527148 1.955 -2.4881004e+38
0.18579258 -0.76174206 1.9460001 -2.4348789e+38
0.19050583 -0.7593869 1.9400001 -2.4215345e+38
0.19548906 -0.75820607 1.937 -2.3815013e+38
0.20055947 -0.75741649 1.9350001 -2.3948457e+38
0.20572525 -0.75701839 1.9340001 -2.4480672e+38
0.21077636 -0.75622874 1.932 -2.4480672e+38
0.21604012 -0.75622201 1.932 -2.4347228e+38
0.22107467 -0.75543231 1.9300001 -2.4614116e+38
0.22574639 -0.75346839 1.9250001 -2.4081901e+38
0.23051077 -0.75189584 1.9210001 -2.4081901e+38
0.23574415 -0.75188899 1.9210001 -2.4348789e+38
0.24110284 -0.75227344 1.9220001 -2.4348789e+38
0.2462106 -0.75187522 1.9210001 -2.4348789e+38
0.25183633 -0.75304252 1.9240001 -2.4482233e+38
0.25841367 -0.75694954 1.9340001 -2.4882566e+38
0.26627246 -0.76437896 1.9530001 -2.6351493e+38
0.27451283 -0.77259117 1.9740001 -2.7152157e+38
0.28272569 -0.78041184 1.9940001 -2.6085647e+38
0.29263714 -0.79253769 2.0250001 -2.5686362e+38
0.3404091 -0.88840955 2.2700002 -2.8623711e+38
0.35300493 -0.90483934 2.312 nan
0.36147812 -0.91031092 2.3260002 nan
0.36860439 -0.91226023 2.3310001 nan
0.37527528 -0.91303575 2.3330002 nan
0.3806484 -0.91068053 2.3270001 nan
0.38682032 -0.91028231 2.3260002 nan
0.39315587 -0.91027564 2.3260002 nan
-0.076070242 -0.9188956 2.3310001 nan
-0.069746248 -0.91929275 2.332 nan
-0.06336239 -0.91890126 2.3310001 nan
-0.057032842 -0.91929793 2.332 nan
-0.050719526 -0.92008859 2.3340001 nan
-0.044357255 -0.9200905 2.3340001 nan
-0.037962388 -0.91930377 2.332 nan
-0.031591944 -0.91891098 2.3310001 nan
-0.025270233 -0.92009491 2.3340001 nan
-0.018899743 -0.9197017 2.3330002 nan
-0.012534685 -0.91930807 2.332 nan
-0.0061273836 -0.91181839 2.3130002 nan
0.00017487402 -0.89683837 2.2750001 nan
0.0062811691 -0.88343495 2.2410002 -2.2214747e+38
0.01230714 -0.87752134 2.2260001 -2.4481209e+38
0.018333869 -0.87554955 2.2210002 -2.4346716e+38
0.024355285 -0.87436616 2.2180002 -2.4613083e+38
0.030387735 -0.87397069 2.217 -2.3812942e+38
0.036431137 -0.87396926 2.217 -2.3011757e+38
0.042436201 -0.87317932 2.2150002 -2.2878313e+38
0.048495971 -0.87357152 2.2160001 -2.3812421e+38
0.054438107 -0.87199265 2.2120001 -2.4079828e+38
0.060467724 -0.87199026 2.2120001 -2.4213272e+38
0.066407114 -0.87080508 2.2090001 -2.3679496e+38
0.072362863 -0.87001371 2.207 -2.4213272e+38
0.078165621 -0.8676455 2.2010002 -2.3279166e+38
0.083859108 -0.86448854 2.1930001 -2.3679498e+38
0.089672782 -0.8629083 2.1890001 -2.4479647e+38
0.095420882 -0.8609336 2.184 -2.3812427e+38
0.10123448 -0.85974699 2.181 -2.3278653e+38
0.10698251 -0.85816622 2.177 -2.2612479e+38
0.11281239 -0.85737348 2.1750002 -2.1012193e+38
0.11863127 -0.85658062 2.1730001 -2.127961e+38
0.1245538 -0.85657585 2.1730001 -2.1546499e+38
0.13011597 -0.85420585 2.1670001 -2.0880325e+38
0.13564533 -0.85183567 2.161 -2.0613437e+38
0.14114191 -0.84946543 2.1550002 -1.9946746e+38
0.14687853 -0.84867156 2.1530001 -1.9946746e+38
0.15274605 -0.84866601 2.1530001 -1.9280049e+38
0.15853979 -0.84826612 2.1520002 -1.9413493e+38
0.16440439 -0.84826028 2.1520002 -1.9413493e+38
0.16955677 -0.84470671 2.1430001 -1.9546937e+38
0.17375967 -0.83681732 2.1230001 -1.9413491e+38
0.17514718 -0.81631452 2.0710001 -1.9013161e+38
0.17511632 -0.79068786 2.006 -2.6218596e+38
0.1780619 -0.77964532 1.978 -2.6484426e+38
0.18196774 -0.77333266 1.9620001 -2.461672e+38
0.18626364 -0.76899093 1.9510001 -2.39495e+38
0.19059767 -0.7650432 1.9410001 -2.4081901e+38
0.19538172 -0.76306629 1.9360001 -2.3948457e+38
0.20024203 -0.76148337 1.932 -2.4215345e+38
0.20550595 -0.76147705 1.932 -2.4347228e+38
0.21044248 -0.7602883 1.9290001 -2.4614116e+38
0.21592166 -0.76107007 1.9310001 -2.4614116e+38
0.22095345 -0.76027536 1.9290001 -2.5147892e+38
0.22597423 -0.75948066 1.927 -2.4482233e+38
0.23062408 -0.75750357 1.9220001 -2.3681569e+38
0.23573747 -0.75710303 1.9210001 -2.4348789e+38
0.24097075 -0.75709659 1.9210001 -2.4348789e+38
0.24658841 -0.75827241 1.9240001 -2.4348787e+38
0.25274593 -0.76102477 1.9310001 -2.5149452e+38
0.26001036 -0.76692992 1.9460001 -2.5816672e+38
0.26722014 -0.77244091 1.96 -2.6617336e+38
0.27450615 -0.7779519 1.9740001 -2.5684272e+38
0.28201008 -0.78385687 1.9890001 -2.5952203e+38
0.29161888 -0.79527932 2.0180001 -2.4352976e+38
0.3393521 -0.89181793 2.263 -2.3152508e+38
0.3511655 -0.90639204 2.3000002 nan
0.35960609 -0.91190231 2.3140001 nan
0.36669981 -0.91386604 2.319 nan
0.37349901 -0.91504163 2.322 nan
0.37884241 -0.91267091 2.3160002 nan
0.38515088 -0.91266477 2.3160002 nan
0.39129034 -0.9122647 2.3150001 nan
-0.075675614 -0.92044985 2.319 nan
-0.069444388 -0.92164344 2.322 nan
-0.063142404 -0.92204309 2.3230002 nan
-0.05678599 -0.92164838 2.322 nan
-0.050478458 -0.9220475 2.3230002 nan
-0.044146422 -0.9220494 2.3230002 nan
-0.037814349 -0.92205101 2.3230002 nan
-0.031441588 -0.92086166 2.3200002 nan
-0.025117636 -0.92086273 2.3200002 nan
-0.018801762 -0.92126054 2.3210001 nan
-0.012437426 -0.91848272 2.3140001 nan
-0.0060476637 -0.90617836 2.283 nan
0.0001721766 -0.88911068 2.24 -2.1149288e+38
0.0062136468 -0.87998134 2.217 -2.474914e+38
0.012229237 -0.87799633 2.2120001 -2.4213274e+38
0.018267088 -0.87839276 2.2130001 -2.314572e+38
0.02426645 -0.87720096 2.21 -2.3279164e+38
0.030235734 -0.87561232 2.2060001 -2.3278651e+38
0.036248911 -0.87561095 2.2060001 -2.3145207e+38
0.042242903 -0.87521255 2.2050002 -2.3278645e+38
0.048209526 -0.87441689 2.2030001 -2.4212753e+38
0.054140594 -0.87322402 2.2 -2.4213272e+38
0.060109951 -0.87282497 2.1990001 -2.4213272e+38
0.066073798 -0.87242562 2.1980002 -2.3145722e+38
0.071999341 -0.87162906 2.1960001 -2.3679498e+38
0.077842906 -0.87003845 2.1920002 -2.2345058e+38
0.083626375 -0.86805075 2.187 -2.3145207e+38
0.089546375 -0.86765045 2.1860001 -2.3011763e+38
0.095373474 -0.86645621 2.1830001 -2.2477989e+38
0.10113774 -0.86486495 2.1790001 -2.2345591e+38
0.10688012 -0.86327332 2.1750002 -2.2079228e+38
0.11275622 -0.86287224 2.174 -2.0479461e+38
0.11857219 -0.86207426 2.1720002 -2.127961e+38
0.12431984 -0.860879 2.1690001 -2.114617e+38
0.1298109 -0.85809612 2.1620002 -2.1013769e+38
0.13545199 -0.85650355 2.158 -2.0346031e+38
0.14100574 -0.85451418 2.1530001 -1.9946746e+38
0.14694139 -0.8549059 2.154 -1.941297e+38
0.15274057 -0.85450381 2.1530001 -1.9947269e+38
0.15875515 -0.85529214 2.1550002 -1.9546937e+38
0.16455138 -0.85488969 2.154 -1.9413493e+38
0.17002557 -0.85289955 2.1490002 -1.9280049e+38
0.17457211 -0.84654361 2.1330001 -1.9280049e+38
0.17640975 -0.82788455 2.0860002 -1.9413493e+38
0.17554693 -0.79811311 2.0110002 -2.421798e+38
0.17868617 -0.78778869 1.9850001 -2.1947857e+38
0.18288922 -0.78262353 1.9720001 -2.5016541e+38
0.18721233 -0.77825218 1.9610001 -2.4616205e+38
0.19137718 -0.77348399 1.9490001 -2.4082429e+38
0.19577931 -0.7699064 1.9400001 -2.4482233e+38
0.20054683 -0.76791614 1.9350001 -2.4348789e+38
0.2053934 -0.76632273 1.9310001 -2.4081901e+38
0.21021807 -0.76472932 1.927 -2.4081901e+38
0.21535632 -0.76432645 1.9260001 -2.4614116e+38
0.22071812 -0.76471734 1.927 -2.4614116e+38
0.22573346 -0.76391762 1.9250001 -2.4213784e+38
0.23061782 -0.76272094 1.9220001 -2.3948457e+38
0.23560849 -0.76192123 1.9200001 -2.4081901e+38
0.24108993 -0.76270896 1.9220001 -2.4215345e+38
0.24709485 -0.76508391 1.9280001 -2.4749119e+38
0.2537868 -0.76944304 1.9390001 -2.5683228e+38
0.26093942 -0.77499253 1.9530001 -2.6483892e+38
0.26748663 -0.77855796 1.9620001 -2.5016008e+38
0.27380466 -0.78132975 1.9690001 -2.5017052e+38
0.28101146 -0.78648239 1.9820001 -2.5151024e+38
0.29074571 -0.79838097 2.0120001 -2.3952643e+38
0.33919549 -0.89757043 2.2620001 -2.3552841e+38
0.35039547 -0.9106586 2.2950001 nan
0.35804561 -0.91422367 2.3040001 nan
0.36495411 -0.91580474 2.3080001 nan
0.37140188 -0.91619581 2.309 nan
0.37687364 -0.91420627 2.3040001 nan
0.38364854 -0.91539121 2.3070002 nan
0.38993278 -0.91538608 2.3070002 nan
-0.075248532 -0.92154068 2.306 nan
-0.069052964 -0.92274219 2.309 nan
-0.062732279 -0.92234516 2.3080001 nan
-0.056490358 -0.92314655 2.3100002 nan
-0.050259221 -0.92434752 2.3130002 nan
-0.043992687 -0.92514855 2.3150001 nan
-0.037666384 -0.92475045 2.3140001 nan
-0.031304847 -0.92315322 2.3100002 nan
-0.024986744 -0.92235506 2.3080001 nan
-0.018703824 -0.92275542 2.309 nan
-0.012367071 -0.919559 2.3010001 nan
-0.006005046 -0.90597177 2.2670002 nan
0.00017109384 -0.88958687 2.2260001 -2.221684e+38
0.0061881817 -0.88239336 2.2080002 -2.4215364e+38
0.012190063 -0.88119411 2.2050002 -2.3413653e+38
0.018183833 -0.88039422 2.2030001 -2.3279166e+38
0.024177669 -0.87999374 2.2020001 -2.3011763e+38
0.030097501 -0.87759489 2.1960001 -2.3278653e+38
0.036083195 -0.87759364 2.1960001 -2.3145207e+38
0.042049702 -0.87719256 2.1950002 -2.3278651e+38
0.048054494 -0.87759054 2.1960001 -2.3545539e+38
0.053941652 -0.87599009 2.1920002 -2.3145207e+38
0.05988897 -0.87558824 2.1910002 -2.3545539e+38
0.06583079 -0.87518626 2.1900001 -2.3545539e+38
0.071734324 -0.87438452 2.1880002 -2.3413657e+38
0.077626899 -0.87358242 2.1860001 -2.2612475e+38
0.083470285 -0.87238067 2.1830001 -2.3011765e+38
0.089379176 -0.87197793 2.1820002 -2.3011769e+38
0.095238864 -0.87117517 2.1800001 -2.2745923e+38
0.10099477 -0.86957324 2.1760001 -2.2479035e+38
0.10672879 -0.86797106 2.1720002 -2.1679943e+38
0.1125965 -0.86756742 2.171 -2.061239e+38
0.11851331 -0.86756343 2.171 -2.0746881e+38
0.12425808 -0.86636037 2.1680002 -2.0613437e+38
0.12992637 -0.86475742 2.164 -2.061292e+38
0.13551 -0.86275488 2.1590002 -2.0346031e+38
0.14113182 -0.86115175 2.1550002 -1.9546414e+38
0.14700456 -0.86114687 2.1550002 -1.9546414e+38
0.15273532 -0.86034256 2.1530001 -1.9947269e+38
0.15867612 -0.86073709 2.154 -2.0080713e+38
0.1643167 -0.85953295 2.151 -1.9546937e+38
0.16978261 -0.85752964 2.1460001 -1.9146605e+38
0.17407537 -0.84993178 2.1270001 -1.9413493e+38
0.17488189 -0.82635051 2.0680001 -1.9146603e+38
0.17510487 -0.80157059 2.006 -2.1949441e+38
0.17868055 -0.79317391 1.9850001 -2.0348102e+38
0.18325457 -0.7895723 1.9760001 -2.1948386e+38
0.18777946 -0.78597057 1.9670001 -2.0880305e+38
0.1920588 -0.78156966 1.9560001 -2.2481633e+38
0.19658089 -0.77836752 1.9480001 -2.4348804e+38
0.2011629 -0.77556491 1.9410001 -2.4082433e+38
0.20581308 -0.77316195 1.9350001 -2.4481718e+38
0.21032137 -0.7703594 1.9280001 -2.4482233e+38
0.21523868 -0.76915497 1.9250001 -2.4347228e+38
0.22036865 -0.76874983 1.9240001 -2.4347228e+38
0.22525856 -0.76754552 1.9210001 -2.4614116e+38
0.23013209 -0.76634139 1.9180001 -2.4213784e+38
0.23523456 -0.76593614 1.9170001 -2.4347228e+38
0.24108414 -0.7679283 1.9220001 -2.4348787e+38
0.24760167 -0.77191824 1.932 -2.4482227e+38
0.25443545 -0.77670729 1.9440001 -2.7017664e+38
0.2609337 -0.78029752 1.9530001 -2.541634e+38
0.2667993 -0.78189027 1.9570001 -2.4883608e+38
0.27296469 -0.78428203 1.9630001 -2.5151539e+38
0.28058058 -0.7906692 1.9790001 -2.4351406e+38
0.2916072 -0.80624557 2.0180001 -2.3818682e+38
0.33888963 -0.90291941 2.26 -2.7290317e+38
0.34916824 -0.913701 2.2870002 nan
0.35617507 -0.91569299 2.2920001 nan
0.36257672 -0.91608721 2.2930002 nan
0.36946636 -0.9176802 2.2970002 nan
0.37555987 -0.91727579 2.296 nan
0.38247958 -0.91886932 2.3000002 nan
0.38806888 -0.91726673 2.296 nan
0.39501044 -0.91886073 2.3000002 nan
-0.074886881 -0.92336696 2.2950001 nan
-0.068542078 -0.92216247 2.2920001 nan
-0.062295116 -0.92216474 2.2920001 nan
-0.056145929 -0.92377609 2.296 nan
-0.049931452 -0.92458284 2.2980001 nan
-0.043687023 -0.92498678 2.299 nan
-0.037388284 -0.92418367 2.2970002 nan
-0.031100417 -0.9233802 2.2950001 nan
-0.024812605 -0.9221741 2.2920001 nan
-0.018541129 -0.92096782 2.289 nan
-0.012253747 -0.91734731 2.2800002 nan
-0.0059597925 -0.90527719 2.25 -2.6888429e+38
0.00017024203 -0.8911953 2.2150002 -2.2750617e+38
0.006165531 -0.88515997 2.2 -2.2748521e+38
0.012145384 -0.88395256 2.197 -2.2879876e+38
0.018125381 -0.88354975 2.1960001 -2.3146769e+38
0.024088936 -0.88274425 2.194 -2.3145209e+38
0.030041568 -0.88193858 2.1920002 -2.2878321e+38
0.036016144 -0.8819375 2.1920002 -2.2878321e+38
0.041933216 -0.88072896 2.1890001 -2.2744877e+38
0.047855787 -0.87992275 2.187 -2.3011765e+38
0.053767424 -0.87911624 2.1850002 -2.2479031e+38
0.059722792 -0.87911421 2.1850002 -2.3012807e+38
0.065648049 -0.87870961 2.184 -2.2879363e+38
0.071535029 -0.87790257 2.1820002 -2.2479031e+38
0.077446565 -0.87749755 2.181 -2.2612479e+38
0.083352596 -0.87709242 2.1800001 -2.2745923e+38
0.089212157 -0.87628484 2.1780002 -2.2345591e+38
0.095060758 -0.8754769 2.1760001 -2.2612479e+38
0.10075916 -0.8734619 2.171 -2.1945784e+38
0.10667592 -0.87345839 2.171 -2.127961e+38
0.11254076 -0.87305236 2.1700001 -2.0612394e+38
0.11856383 -0.87385315 2.1720002 -2.0213105e+38
0.12425385 -0.87223989 2.1680002 -2.061292e+38
0.13004208 -0.87143105 2.1660001 -2.061292e+38
0.13569376 -0.86981732 2.1620002 -2.0080705e+38
0.14152005 -0.86941057 2.161 -1.9813302e+38
0.1472726 -0.86860132 2.1590002 -1.9813302e+38
0.15287228 -0.86698741 2.1550002 -1.9413493e+38
0.15859738 -0.8661778 2.1530001 -2.0214157e+38
0.16415876 -0.86456364 2.1490002 -1.9413493e+38
0.16930264 -0.86093777 2.1400001 -1.9546937e+38
0.17202407 -0.84564495 2.102 -1.9280049e+38
0.172086 -0.81868553 2.0350001 -1.9280047e+38
0.17448866 -0.80419773 1.9990001 -1.9680894e+38
0.17849527 -0.79775578 1.983 -2.1415655e+38
0.18324926 -0.79493463 1.9760001 -2.0347058e+38
0.18796504 -0.79211348 1.9690001 -2.3148856e+38
0.19254439 -0.78889 1.9610001 -1.9812766e+38
0.19718097 -0.7860688 1.9540001 -2.0346534e+38
0.2019866 -0.78405213 1.9490001 -2.3548139e+38
0.20644581 -0.7808286 1.9410001 -2.4482765e+38
0.2106432 -0.77680057 1.9310001 -2.4215873e+38
0.21512146 -0.77397943 1.9240001 -2.4081386e+38
0.22001962 -0.77276742 1.9210001 -2.4348789e+38
0.22490138 -0.77155536 1.9180001 -2.4348789e+38
0.22976674 -0.77034348 1.9150001 -2.4215345e+38
0.2351065 -0.77074057 1.9160001 -2.3948457e+38
0.24120426 -0.77355123 1.9230001 -2.3948455e+38
0.24785273 -0.77797115 1.9340001 -2.5950112e+38
0.25456104 -0.78239083 1.9450001 -2.5816668e+38
0.26039404 -0.78399491 1.9490001 -2.5282896e+38
0.26624876 -0.78559893 1.9530001 -2.4750164e+38
0.27254242 -0.78840983 1.96 -2.4617762e+38
0.28100085 -0.79725456 1.9820001 -2.4618294e+38
0.34748358 -0.91549456 2.276 nan
0.35461602 -0.91790318 2.2820001 nan
0.36099067 -0.91830081 2.283 nan
0.36785325 -0.91990554 2.2870002 nan
0.37391984 -0.91949922 2.286 nan
0.38031361 -0.91989756 2.2870002 nan
0.38603684 -0.91868728 2.2840002 nan
0.39225897 -0.91868389 2.2840002 nan
-0.074427508 -0.92391974 2.2810001 nan
-0.068121061 -0.9227069 2.2780001 nan
-0.061858106 -0.9218989 2.276 nan
-0.055801649 -0.92433131 2.2820001 nan
-0.049603794 -0.92473811 2.283 nan
-0.043419469 -0.92554975 2.2850001 nan
-0.037159104 -0.92474103 2.283 nan
-0.030977368 -0.92595738 2.286 nan
-0.024735954 -0.92555326 2.2850001 nan
-0.018435176 -0.9219085 2.276 nan
-0.012167327 -0.91704839 2.2640002 nan
-0.0059383931 -0.90813744 2.2420001 -3.0624347e+38
0.00017015917 -0.89679587 2.214 -2.2349761e+38
0.0061625117 -0.89072001 2.1990001 -2.2080788e+38
0.012128372 -0.88869435 2.194 -2.2745919e+38
0.018075222 -0.88707364 2.1900001 -2.2479031e+38
0.024011236 -0.88585776 2.187 -2.2612475e+38
0.029971991 -0.88585675 2.187 -2.2744877e+38
0.035949156 -0.88626081 2.1880002 -2.2744877e+38
0.04185513 -0.88504434 2.1850002 -2.2479035e+38
0.047788478 -0.88463759 2.184 -2.2612479e+38
0.053740952 -0.88463598 2.184 -2.2879363e+38
0.059693385 -0.88463396 2.184 -2.2612475e+38
0.065585673 -0.88382185 2.1820002 -2.2345591e+38
0.071467005 -0.88300943 2.1800001 -2.2212147e+38
0.077337407 -0.88219702 2.1780002 -2.2212147e+38
0.08323507 -0.88178915 2.177 -2.2345591e+38
0.089086279 -0.88097632 2.1750002 -2.1946301e+38
0.094926521 -0.88016313 2.1730001 -2.1946301e+38
0.100663 -0.87853992 2.1690001 -2.181234e+38
0.10667241 -0.87934661 2.171 -2.127961e+38
0.11253708 -0.87893808 2.1700001 -2.0479993e+38
0.11850539 -0.87933946 2.171 -2.061292e+38
0.12430717 -0.87852556 2.1690001 -2.0479476e+38
0.13021803 -0.87852162 2.1690001 -2.0214149e+38
0.13594054 -0.87730247 2.1660001 -1.9813817e+38
0.14164662 -0.87608314 2.1630001 -2.008019e+38
0.14719982 -0.87405354 2.158 -1.9946746e+38
0.15293856 -0.8732391 2.1560001 -1.9413491e+38
0.15859263 -0.87201953 2.1530001 -1.9947269e+38
0.16415389 -0.87039483 2.1490002 -1.9680381e+38
0.16834834 -0.86188447 2.128 -1.9280049e+38
0.16899118 -0.83636355 2.0650001 -1.9546937e+38
0.1699671 -0.81408286 2.01 -1.9280047e+38
0.17378549 -0.80638289 1.9910001 -1.888023e+38
0.17813034 -0.80151808 1.9790001 -2.3016988e+38
0.18296613 -0.79908329 1.973 -2.0881877e+38
0.18767367 -0.79624343 1.9660001 -2.1147722e+38
0.19263758 -0.79461867 1.9620001 -2.3282827e+38
0.19747867 -0.79258877 1.9570001 -2.2214747e+38
0.20218883 -0.79015398 1.9510001 -2.1547527e+38
0.20686622 -0.78771913 1.9450001 -2.0880303e+38
0.21129268 -0.78447431 1.937 -2.234766e+38
0.21578729 -0.78163451 1.9300001 -2.421483e+38
0.22024372 -0.77879488 1.9230001 -2.4081386e+38
0.2252482 -0.77798015 1.9210001 -2.4348789e+38
0.23012175 -0.7767604 1.9180001 -2.4081901e+38
0.23559242 -0.77756566 1.9200001 -2.3948457e+38
0.2415757 -0.77999097 1.9260001 -2.5683228e+38
0.24797602 -0.78363115 1.9350001 -2.6483892e+38
0.25429448 -0.78686637 1.9430001 -2.5816672e+38
0.25972131 -0.78726679 1.9440001 -2.4616718e+38
0.26542619 -0.78847736 1.9470001 -2.5017052e+38
0.27212077 -0.79252279 1.9570001 -2.5685315e+38
0.28156346 -0.80426258 1.9860001 -2.6220138e+38
0.34442568 -0.91358542 2.256 nan
0.35305783 -0.92006075 2.2720001 nan
0.3594054 -0.92046189 2.273 nan
0.36624101 -0.92207819 2.2770002 nan
0.37195343 -0.92085993 2.2740002 nan
0.3783147 -0.92126173 2.2750001 nan
0.38400561 -0.92004418 2.2720001 nan
0.39019528 -0.92004156 2.2720001 nan
-0.074000925 -0.92480552 2.2680001 nan
-0.067700207 -0.92317671 2.2640002 nan
-0.06152996 -0.92317879 2.2640002 nan
-0.055457484 -0.92481166 2.2680001 nan
-0.049276263 -0.92481333 2.2680001 nan
-0.043095019 -0.92481488 2.2680001 nan
-0.036897462 -0.92440838 2.2670002 nan
-0.030773085 -0.92604053 2.2710001 nan
-0.024594408 -0.92644918 2.2720001 nan
-0.01832927 -0.92277992 2.263 nan
-0.012107806 -0.91870272 2.253 nan
-0.0059196544 -0.91136318 2.2350001 nan
0.00016992293 -0.90157688 2.2110002 -2.2082873e+38
0.0061510964 -0.89505243 2.1950002 -2.1681498e+38
0.012100329 -0.89260554 2.1890001 -2.2079741e+38
0.018066367 -0.89260507 2.1890001 -2.2212143e+38
0.024010437 -0.89178878 2.187 -2.2745923e+38
0.029970994 -0.89178795 2.187 -2.2612479e+38
0.035865817 -0.89015585 2.1830001 -2.2612479e+38
0.041757967 -0.88893121 2.1800001 -2.2612479e+38
0.047611866 -0.88729882 2.1760001 -2.2345591e+38
0.053566948 -0.88770491 2.177 -2.2212147e+38
0.059500124 -0.88770312 2.177 -2.2078703e+38
0.065403208 -0.8872934 2.1760001 -2.2078703e+38
0.071268015 -0.88647574 2.174 -2.1677854e+38
0.077086359 -0.88525009 2.171 -2.1412008e+38
0.083117709 -0.88647097 2.174 -2.1945784e+38
0.089042485 -0.88646817 2.174 -2.1678896e+38
0.094879851 -0.88564992 2.1720002 -2.1545452e+38
0.10061345 -0.88401598 2.1680002 -2.1146166e+38
0.10657083 -0.88442057 2.1690001 -2.0879282e+38
0.11248177 -0.88441736 2.1690001 -2.0346549e+38
0.11839262 -0.8844139 2.1690001 -2.061292e+38
0.12413149 -0.88318712 2.1660001 -2.0746364e+38
0.12997401 -0.8827756 2.1650002 -2.061292e+38
0.13574825 -0.88195628 2.1630001 -2.0346031e+38
0.14151151 -0.88113683 2.161 -1.9946746e+38
0.14719558 -0.87990952 2.158 -1.9946746e+38
0.15293421 -0.87908995 2.1560001 -1.9946746e+38
0.1588828 -0.87949342 2.1570001 -1.9679858e+38
0.16445486 -0.8778581 2.1530001 -1.9546937e+38
0.16802731 -0.86602932 2.1240001 -1.9413493e+38
0.16694082 -0.83177537 2.0400002 -1.9546937e+38
0.16869424 -0.81342304 1.9950001 -1.8747315e+38
0.17299542 -0.80811828 1.9820001 -1.8345942e+38
0.17785577 -0.80566758 1.9760001 -2.1549624e+38
0.18277608 -0.80362463 1.9710001 -2.2883537e+38
0.18757363 -0.80117387 1.9650002 -2.2481633e+38
0.19253473 -0.79953849 1.9610001 -2.1547525e+38
0.19737312 -0.79749548 1.9560001 -2.141461e+38
0.20218417 -0.79545248 1.9510001 -2.1548054e+38
0.20718066 -0.79422492 1.9480001 -2.2614564e+38
0.21205164 -0.79258966 1.9440001 -2.2214747e+38
0.21701255 -0.79136199 1.9410001 -2.1546478e+38
0.22149897 -0.78850365 1.9340001 -2.4349321e+38
0.22641622 -0.78727627 1.9310001 -2.3947942e+38
0.23131707 -0.78604889 1.9280001 -2.4348789e+38
0.23656961 -0.7860446 1.9280001 -2.4081901e+38
0.24207301 -0.78685588 1.9300001 -2.6483894e+38
0.2479717 -0.78889024 1.9350001 -2.6617336e+38
0.25376672 -0.79051691 1.9390001 -2.5549784e+38
0.25904915 -0.79051304 1.9390001 -2.541634e+38
0.26528576 -0.79336292 1.9460001 -2.5150494e+38
0.27253386 -0.79906672 1.96 -2.5951161e+38
0.28212661 -0.81129366 1.9900001 -2.6618908e+38
0.29173833 -0.82311285 2.0190001 -1.9415036e+38
0.34091046 -0.91034609 2.233 nan
0.35072336 -0.92012715 2.2570002 nan
0.35766274 -0.92216241 2.2620001 nan
0.36350352 -0.92134422 2.26 nan
0.36933351 -0.92052633 2.2580001 nan
0.37565151 -0.92093164 2.2590001 nan
0.38298917 -0.9237833 2.266 nan
0.38933468 -0.92418945 2.2670002 nan
0.39498782 -0.92296499 2.2640002 nan
-0.073705032 -0.92726427 2.2590001 nan
-0.067548625 -0.92726636 2.2590001 nan
-0.061337836 -0.92644733 2.2570002 nan
-0.055260163 -0.92768037 2.26 nan
-0.049100928 -0.92768192 2.26 nan
-0.042979673 -0.92850435 2.2620001 nan
-0.036766104 -0.92727411 2.2590001 nan
-0.030609518 -0.92727512 2.2590001 nan
-0.024420444 -0.92604458 2.256 nan
-0.018223403 -0.92358232 2.25 nan
-0.01204294 -0.9198885 2.2410002 nan
-0.0058982796 -0.91414183 2.227 nan
0.00016968703 -0.90634292 2.2080002 -2.0748432e+38
0.0061481008 -0.90059596 2.194 -2.1681498e+38
0.012083367 -0.89731199 2.1860001 -2.221319e+38
0.018032789 -0.89690101 2.1850002 -2.221319e+38
0.023965772 -0.89607936 2.1830001 -2.2346634e+38
0.029956358 -0.89731008 2.1860001 -2.2745923e+38
0.035831839 -0.89525658 2.181 -2.2212147e+38
0.041756671 -0.89484501 2.1800001 -2.2479035e+38
0.047588512 -0.89279133 2.1750002 -2.2612479e+38
0.05351609 -0.89278978 2.1750002 -2.1811815e+38
0.059443638 -0.89278811 2.1750002 -2.1945784e+38
0.065371156 -0.89278626 2.1750002 -2.2079228e+38
0.071265839 -0.89237374 2.174 -2.1545452e+38
0.077048533 -0.89072967 2.1700001 -2.1678896e+38
0.082962289 -0.89072734 2.1700001 -2.1545452e+38
0.088876009 -0.89072478 2.1700001 -2.1812344e+38
0.094746001 -0.89031178 2.1690001 -2.1412012e+38
0.10056408 -0.88948804 2.1670001 -2.127961e+38
0.10646947 -0.88948512 2.1670001 -2.1012726e+38
0.11232295 -0.88907158 2.1660001 -2.0613437e+38
0.11800718 -0.88742661 2.1620002 -2.0479476e+38
0.12395606 -0.88783371 2.1630001 -2.0346031e+38
0.12997039 -0.88865119 2.1650002 -2.0746364e+38
0.13593277 -0.88905805 2.1660001 -2.0479476e+38
0.14157313 -0.88741261 2.1620002 -2.008019e+38
0.14712344 -0.88535661 2.1570001 -2.0213634e+38
0.15293016 -0.88494229 2.1560001 -1.9813302e+38
0.15873134 -0.88452786 2.1550002 -1.9680381e+38
0.16422148 -0.8824715 2.1500001 -1.9813825e+38
0.16739021 -0.86851215 2.1160002 -1.9680381e+38
0.16644566 -0.83485132 2.0340002 -1.9413493e+38
0.16818276 -0.81637716 1.9890001 -1.8880759e+38
0.17246757 -0.81103742 1.9760001 -1.8879715e+38
0.17749158 -0.8093918 1.9720001 -2.0081739e+38
0.18249367 -0.80774593 1.9680001 -2.3016981e+38
0.18747394 -0.80610013 1.9640001 -2.3549186e+38
0.19243233 -0.80445433 1.96 -2.3549182e+38
0.19746979 -0.80321902 1.9570001 -2.1147722e+38
0.20228358 -0.8011629 1.9520001 -2.074739e+38
0.20749548 -0.80074835 1.9510001 -2.074739e+38
0.21259283 -0.79992348 1.9490001 -2.2080788e+38
0.21779099 -0.79950905 1.9480001 -2.3148856e+38
0.2226401 -0.79786336 1.9440001 -2.4215364e+38
0.22770189 -0.79703873 1.9420002 -2.3948471e+38
0.23275273 -0.79621398 1.9400001 -2.36821e+38
0.23803805 -0.79621017 1.9400001 -2.4081901e+38
0.24307247 -0.7953856 1.9380001 -2.4749122e+38
0.24848047 -0.79579246 1.9390001 -2.6350448e+38
0.25376296 -0.79578888 1.9390001 -2.5950112e+38
0.25891188 -0.79537499 1.9380001 -2.554978e+38
0.26500958 -0.79783416 1.9440001 -2.5816672e+38
0.27322567 -0.80644953 1.9650002 -2.6218049e+38
0.28212324 -0.81670648 1.9900001 -2.3415723e+38
0.29014561 -0.82409078 2.0080001 -2.1415637e+38
0.29929659 -0.8343479 2.033 -2.2217871e+38
0.33663279 -0.90493149 2.2050002 -2.8758201e+38
0.34807882 -0.91929287 2.24 nan
0.35528845 -0.92216349 2.2470002 nan
0.36108863 -0.92134058 2.2450001 nan
0.36736867 -0.92174906 2.2460001 nan
0.37382054 -0.92256844 2.2480001 nan
0.3814666 -0.92626077 2.2570002 nan
0.38761613 -0.92625993 2.2570002 nan
0.39359125 -0.9258489 2.256 nan
-0.07344193 -0.93008876 2.2510002 nan
-0.06721779 -0.92885113 2.2480001 nan
-0.061009962 -0.92761338 2.2450001 nan
-0.054916259 -0.92802811 2.2460001 nan
-0.048838802 -0.92885596 2.2480001 nan
-0.042769421 -0.93009686 2.2510002 nan
-0.036586009 -0.92885834 2.2480001 nan
-0.030405384 -0.92720664 2.2440002 nan
-0.024246538 -0.92555457 2.24 nan
-0.018109484 -0.92390233 2.2360001 nan
-0.011983474 -0.92142355 2.23 nan
-0.0058716219 -0.91605228 2.217 -3.0493508e+38
0.00016960518 -0.91192043 2.207 -2.1416693e+38
0.0061535244 -0.90737522 2.1960001 -2.1283249e+38
0.012077484 -0.90282989 2.1850002 -2.1681498e+38
0.017999249 -0.90117663 2.181 -2.141461e+38
0.023932135 -0.9007628 2.1800001 -2.2080788e+38
0.029941777 -0.9028281 2.1850002 -2.2346634e+38
0.035797939 -0.90034795 2.1790001 -2.221319e+38
0.041659694 -0.8986941 2.1750002 -2.2079228e+38
0.047499608 -0.89704001 2.171 -2.1545452e+38
0.053416125 -0.8970387 2.171 -2.1545452e+38
0.059332609 -0.89703709 2.171 -2.16789e+38
0.065309174 -0.89786178 2.1730001 -2.1412012e+38
0.071231037 -0.89785987 2.1730001 -2.1545456e+38
0.076975353 -0.89579195 2.1680002 -2.1812344e+38
0.082807049 -0.89496338 2.1660001 -2.127961e+38
0.088709719 -0.89496106 2.1660001 -2.1413059e+38
0.094612345 -0.89495867 2.1660001 -2.1012726e+38
0.10051493 -0.89495611 2.1660001 -2.0879282e+38
0.10631919 -0.89412701 2.164 -2.061292e+38
0.11231993 -0.89495057 2.1660001 -2.0213634e+38
