# .PCD v0.7 - Point Cloud Data file format
VERSION 0.7
FIELDS x y z rgb
SIZE 4 4 4 4
TYPE F F F F
COUNT 1 1 1 1
WIDTH 1042
HEIGHT 1
VIEWPOINT 0 0 0 1 0 0 0
POINTS 1042
DATA ascii
0.24298485 0.44871396 1.7770001 -1.9552137e+38
0.25034222 0.45324093 1.7950001 -2.0219358e+38
0.25651753 0.45549491 1.8040001 -1.9018361e+38
0.26303124 0.45825344 1.8150001 -1.8884917e+38
0.27108088 0.46353617 1.8360001 -2.0085914e+38
0.27984601 0.46982819 1.8610001 -1.9418693e+38
0.28690967 0.47309002 1.8740001 -1.9018361e+38
0.29326451 0.47508919 1.8820001 -1.9685581e+38
0.29982099 0.47734046 1.891 -1.9552137e+38
0.30674851 0.48009607 1.9020001 -1.9418693e+38
0.31340739 0.48234653 1.9110001 -1.955318e+38
0.32078165 0.48560619 1.9240001 -1.8353226e+38
0.32924291 0.49037972 1.9430001 -1.8620116e+38
0.033828743 0.43986624 1.7590001 nan
0.038268302 0.43561199 1.7420001 -1.7015676e+38
0.04254061 0.43060723 1.7220001 -1.8350628e+38
0.046813112 0.42660242 1.7060001 -1.9285251e+38
0.051178984 0.42409757 1.6960001 -1.875096e+38
0.055819117 0.42409304 1.6960001 -1.8617516e+38
0.060423445 0.42383796 1.6950001 -1.8484072e+38
0.065022141 0.42358258 1.6940001 -1.8883361e+38
0.069532931 0.42282662 1.6910001 -1.87494e+38
0.074114822 0.42257044 1.6900001 -1.8484072e+38
0.07869105 0.42231387 1.6890001 -1.8484072e+38
0.083162934 0.42155692 1.6860001 -1.875096e+38
0.08761818 0.42079958 1.6830001 -1.8884404e+38
0.092221156 0.42079195 1.6830001 -1.8617516e+38
0.096766353 0.4205339 1.682 -1.8484072e+38
0.10142635 0.42077556 1.6830001 -1.8484074e+38
0.10596554 0.42051685 1.682 -1.8617518e+38
0.11056472 0.42050779 1.682 -1.835063e+38
0.11516359 0.42049834 1.682 -1.8484074e+38
0.11969095 0.42023855 1.6810001 -1.8482512e+38
0.12428647 0.42022845 1.6810001 -1.8217186e+38
0.12872833 0.41971803 1.6790001 -1.835063e+38
0.13339709 0.41995719 1.6800001 -1.8217186e+38
0.13815312 0.42044598 1.682 -1.7950298e+38
0.14291975 0.42093438 1.6840001 -1.8750962e+38
0.14787214 0.42192239 1.6880001 -1.8750962e+38
0.15293634 0.4231599 1.6930001 -1.8617518e+38
0.15793438 0.42414707 1.697 -1.8083742e+38
0.16276233 0.42463407 1.6990001 -1.8217186e+38
0.16760078 0.42512068 1.7010001 -1.8217186e+38
0.17265226 0.42610678 1.705 -1.8083742e+38
0.1777252 0.42709252 1.7090001 -1.87494e+38
0.18281952 0.42807785 1.7130001 -1.8615956e+38
0.18804468 0.42931274 1.7180001 -1.87494e+38
0.19307239 0.43004751 1.7210001 -1.8882844e+38
0.19800106 0.43053201 1.723 -1.8883361e+38
0.20329314 0.43176588 1.728 -1.8617516e+38
0.20873243 0.43324915 1.7340001 -1.875096e+38
0.2143271 0.43498194 1.7410001 -1.8884919e+38
0.21945615 0.43571496 1.7440001 -1.9151807e+38
0.22524388 0.43769681 1.7520001 -1.9018363e+38
0.23081222 0.43917865 1.7580001 -1.8884917e+38
0.23694885 0.4416593 1.7680001 -1.9418693e+38
0.24327627 0.44438931 1.779 -1.9418693e+38
0.24994212 0.44761842 1.7920001 -2.0219358e+38
0.25653619 0.45059732 1.8040001 -1.9285249e+38
0.2627604 0.45282641 1.8130001 -1.8618029e+38
0.27036208 0.45730293 1.8310001 -1.9552139e+38
0.27896363 0.46327731 1.8550001 -1.9285251e+38
0.28647059 0.46725303 1.8710001 -1.9018361e+38
0.29328507 0.46997967 1.8820001 -1.9685581e+38
0.29968327 0.47195667 1.8900001 -1.9418693e+38
0.30644709 0.47443277 1.9000001 -1.9018361e+38
0.31293675 0.47640905 1.9080001 -1.9419736e+38
0.32030314 0.47963339 1.9210001 -1.8353226e+38
0.3282482 0.48360625 1.937 -1.9153892e+38
0.0337932 0.43459582 1.7570001 nan
0.038161758 0.42964575 1.7370001 -1.7015676e+38
0.042420745 0.42469528 1.7170001 -1.9685068e+38
0.046679929 0.42073387 1.7010001 -1.9018363e+38
0.051092852 0.41875094 1.6930001 -1.8617516e+38
0.055692244 0.41849896 1.692 -1.8617516e+38
0.060357325 0.41874135 1.6930001 -1.8617518e+38
0.064950928 0.41848865 1.692 -1.8882844e+38
0.069456629 0.41774091 1.6890001 -1.8616473e+38
0.073989578 0.41724011 1.687 -1.8617516e+38
0.078604564 0.41723362 1.687 -1.8617516e+38
0.083120674 0.4167321 1.6850001 -1.8884404e+38
0.08767768 0.41647756 1.6840001 -1.9151292e+38
0.092228957 0.41622257 1.6830001 -1.8617516e+38
0.096774526 0.41596732 1.682 -1.8617516e+38
0.10119381 0.41521704 1.6790001 -1.8617518e+38
0.10578543 0.41520837 1.6790001 -1.8617518e+38
0.1104425 0.41544658 1.6800001 -1.8484074e+38
0.11503624 0.41543713 1.6800001 -1.8484074e+38
0.11955849 0.41518012 1.6790001 -1.835063e+38
0.12407493 0.41492268 1.6780001 -1.8484074e+38
0.12866227 0.41491225 1.6780001 -1.835063e+38
0.13348748 0.41564322 1.6810001 -1.8217186e+38
0.13824661 0.41612658 1.6830001 -1.8083742e+38
0.14301629 0.41660953 1.6850001 -1.7950298e+38
0.14797176 0.41758665 1.6890001 -1.8484074e+38
0.15312941 0.41905785 1.6950001 -1.8484074e+38
0.15794712 0.41953966 1.697 -1.8484074e+38
0.16277543 0.42002124 1.6990001 -1.7950298e+38
0.16761419 0.42050239 1.7010001 -1.8083742e+38
0.1727673 0.42172486 1.7060001 -1.7950298e+38
0.17773926 0.42245248 1.7090001 -1.8882844e+38
0.18294068 0.42367417 1.7140001 -1.87494e+38
0.18805948 0.42464828 1.7180001 -1.87494e+38
0.19319965 0.42562202 1.7220001 -1.9016288e+38
0.19801643 0.42585394 1.723 -1.8749917e+38
0.2034265 0.42732134 1.7290001 -1.8884404e+38
0.20862806 0.42829406 1.733 -1.8884404e+38
0.21422035 0.43000785 1.7400001 -1.8484587e+38
0.21959864 0.43122694 1.7450001 -1.8618031e+38
0.22551799 0.4334341 1.7540001 -1.9151807e+38
0.2306982 0.43415833 1.7570001 -1.8751473e+38
0.23656438 0.43611762 1.7650001 -1.9151805e+38
0.24233696 0.43782946 1.7720001 -1.9551095e+38
0.24926306 0.44151747 1.7870001 -1.9552137e+38
0.25641268 0.44545206 1.8030001 -1.9418693e+38
0.26263449 0.44765666 1.812 -1.8618029e+38
0.2697908 0.45134315 1.8270001 -1.8751475e+38
0.27793074 0.45651129 1.848 -1.9552139e+38
0.28587839 0.46118474 1.8670001 -1.8485627e+38
0.29252642 0.46363443 1.8770001 -1.9018361e+38
0.29891127 0.46558976 1.8850001 -1.9819026e+38
0.30566174 0.46803874 1.8950001 -1.9418693e+38
0.31246611 0.47048724 1.9050001 -1.995247e+38
0.31965789 0.47342926 1.9170001 -1.8619072e+38
0.3275924 0.47735873 1.9330001 -1.8353228e+38
0.33802423 0.48474482 1.9630001 -1.8753045e+38
0.033584535 0.42713377 1.7460001 nan
0.037967306 0.42272726 1.728 -1.7015676e+38
0.042276155 0.41856503 1.7110001 -1.9552139e+38
0.046574172 0.41513637 1.697 -1.8751475e+38
0.051006701 0.41341975 1.6900001 -1.8484072e+38
0.055631198 0.41341519 1.6900001 -1.8484072e+38
0.060291197 0.41365483 1.6910001 -1.8617518e+38
0.064879715 0.41340482 1.6900001 -1.8617518e+38
0.06942144 0.41290987 1.6880001 -1.8484072e+38
0.073952034 0.41241455 1.6860001 -1.8484072e+38
0.078518063 0.41216341 1.6850001 -1.8617516e+38
0.083078407 0.41191196 1.6840001 -1.8884404e+38
0.087633044 0.41166008 1.6830001 -1.875096e+38
0.092291579 0.41189709 1.6840001 -1.8617516e+38
0.096725151 0.41115528 1.6810001 -1.8617516e+38
0.10120232 0.41065779 1.6790001 -1.8484074e+38
0.1057943 0.41064909 1.6790001 -1.8617518e+38
0.11045172 0.41088459 1.6800001 -1.8617518e+38
0.11504584 0.41087517 1.6800001 -1.835063e+38
0.11949722 0.41037625 1.6780001 -1.8484074e+38
0.12408523 0.41036618 1.6780001 -1.835063e+38
0.12882628 0.41084483 1.6800001 -1.8484074e+38
0.13341907 0.41083401 1.6800001 -1.835063e+38
0.1383401 0.41180101 1.6840001 -1.8217186e+38
0.14302799 0.412034 1.6850001 -1.8083742e+38
0.14807142 0.41324475 1.6900001 -1.8217186e+38
0.1530515 0.41421062 1.6940001 -1.8617518e+38
0.15814607 0.41542059 1.6990001 -1.8484074e+38
0.16288431 0.41565213 1.7 -1.7950298e+38
0.16782469 0.41637236 1.7030001 -1.7950298e+38
0.17267978 0.41684774 1.705 -1.7950298e+38
0.17785735 0.41805619 1.71 -1.8484074e+38
0.18284838 0.41877538 1.7130001 -1.8217186e+38
0.18796477 0.41973865 1.7170001 -1.8217186e+38
0.19310254 0.4207015 1.7210001 -1.8484074e+38
0.19814676 0.42141962 1.7240001 -1.8617518e+38
0.20355989 0.4228707 1.7300001 -1.875096e+38
0.20876448 0.42383251 1.7340001 -1.875096e+38
0.21411358 0.4250384 1.7390001 -1.875096e+38
0.21961533 0.42648837 1.7450001 -1.8884404e+38
0.22540645 0.42842671 1.7530001 -1.9151807e+38
0.23097813 0.42987591 1.7590001 -1.8884919e+38
0.23658203 0.43132469 1.7650001 -1.9018361e+38
0.24262843 0.43350625 1.774 -1.9284207e+38
0.24942091 0.43690917 1.7880001 -1.9685581e+38
0.25671586 0.44104457 1.8050001 -1.9552139e+38
0.26250857 0.44249174 1.8110001 -1.8618029e+38
0.26936719 0.44564882 1.8240001 -1.8751475e+38
0.27719855 0.45027125 1.8430001 -1.9685583e+38
0.28559238 0.45562604 1.8650001 -1.9285251e+38
0.29207942 0.45780429 1.8740001 -1.9018361e+38
0.29877353 0.46022645 1.8840001 -2.0085914e+38
0.30536029 0.46240398 1.8930001 -1.9285249e+38
0.31232351 0.46506953 1.904 -1.9552137e+38
0.31917933 0.46749049 1.914 -1.9018361e+38
0.32642815 0.47039959 1.9260001 -1.7952896e+38
0.33666915 0.47746 1.955 -2.0354374e+38
0.033491254 0.4211821 1.7410001 nan
0.037750844 0.4156149 1.7180001 -1.8618558e+38
0.042106826 0.41222465 1.7040001 -1.9151807e+38
0.046468396 0.40955979 1.6930001 -1.8484587e+38
0.050950721 0.40834597 1.6880001 -1.8883361e+38
0.055537216 0.4080995 1.687 -1.8615956e+38
0.060189396 0.40833646 1.6880001 -1.8615956e+38
0.06477008 0.40808919 1.687 -1.8882844e+38
0.069386244 0.40808344 1.687 -1.8617516e+38
0.073870607 0.40735167 1.6840001 -1.8884404e+38
0.078431554 0.4071033 1.6830001 -1.8884404e+38
0.082937449 0.40661263 1.6810001 -1.875096e+38
0.087588392 0.40684727 1.682 -1.8484072e+38
0.092189759 0.4068397 1.682 -1.8484072e+38
0.096675761 0.40634793 1.6800001 -1.8484074e+38
0.10109028 0.40561402 1.677 -1.8484074e+38
0.10567714 0.40560532 1.677 -1.8484074e+38
0.11039523 0.40608001 1.6790001 -1.8617518e+38
0.11505546 0.40631247 1.6800001 -1.8484074e+38
0.11950717 0.40581897 1.6780001 -1.835063e+38
0.12402156 0.40556702 1.677 -1.835063e+38
0.12868354 0.40579838 1.6780001 -1.835063e+38
0.13335063 0.40602943 1.6790001 -1.835063e+38
0.13818713 0.40674371 1.682 -1.835063e+38
0.14303969 0.40745768 1.6850001 -1.8217186e+38
0.14799587 0.40841308 1.6890001 -1.7816854e+38
0.15306388 0.40960982 1.6940001 -1.8484074e+38
0.15825193 0.41104805 1.7 -1.8484074e+38
0.16308905 0.41151863 1.702 -1.7816854e+38
0.16793668 0.41198894 1.7040001 -1.7950298e+38
0.17279483 0.4124589 1.7060001 -1.7950298e+38
0.17797551 0.41365379 1.7110001 -1.835063e+38
0.18318304 0.41484827 1.7160001 -1.8083742e+38
0.18808898 0.41531715 1.7180001 -1.8617518e+38
0.19311762 0.41602743 1.7210001 -1.8484074e+38
0.19816215 0.41673738 1.7240001 -1.8484074e+38
0.20345795 0.41793045 1.7290001 -1.8484072e+38
0.20853975 0.41863975 1.7320001 -1.8484072e+38
0.21388367 0.41983205 1.7370001 -1.8350628e+38
0.21938027 0.42126569 1.743 -1.8617516e+38
0.22516626 0.42318231 1.751 -1.9018363e+38
0.23060149 0.42437357 1.756 -1.8751475e+38
0.23633155 0.42604777 1.7630001 -1.9151807e+38
0.24223605 0.42796323 1.771 -1.9284207e+38
0.24929973 0.43181136 1.7870001 -1.9418695e+38
0.25645018 0.43565905 1.8030001 -1.9819028e+38
0.26252761 0.43757311 1.8110001 -1.8217699e+38
0.26909122 0.44021168 1.8220001 -1.8217699e+38
0.27661672 0.44429934 1.8390001 -1.9418695e+38
0.28515324 0.44983596 1.8620001 -1.9151807e+38
0.29147652 0.45174822 1.8700001 -1.9151805e+38
0.29831862 0.45438483 1.881 -1.995247e+38
0.30505878 0.45677942 1.891 -1.9151805e+38
0.31218094 0.45965669 1.9030001 -1.9685581e+38
0.31836724 0.46108434 1.909 -1.9151805e+38
0.32526368 0.46347779 1.9190001 -1.7951853e+38
0.33479729 0.46949345 1.9440001 -1.9420267e+38
0.033205565 0.41286469 1.7260001 -2.9694417e+38
0.037490394 0.40807763 1.7060001 -1.9819555e+38
0.041937463 0.4059214 1.697 -1.9018363e+38
0.046444941 0.40472162 1.692 -1.8618031e+38
0.05101547 0.404239 1.6900001 -1.8883361e+38
0.055607829 0.40399525 1.6890001 -1.835063e+38
0.060230214 0.40399027 1.6890001 -1.8615956e+38
0.064814024 0.40374577 1.6880001 -1.8217186e+38
0.069392167 0.40350083 1.687 -1.8617516e+38
0.073876902 0.40277717 1.6840001 -1.8617516e+38
0.078391612 0.40229234 1.682 -1.8617516e+38
0.082845815 0.401568 1.6790001 -1.8617516e+38
0.087491669 0.40179995 1.6800001 -1.8484072e+38
0.092142731 0.40203148 1.6810001 -1.8882844e+38
0.096683912 0.40178436 1.6800001 -1.8882844e+38
0.10127963 0.40177602 1.6800001 -1.835063e+38
0.10581205 0.40152821 1.6790001 -1.835063e+38
0.11047021 0.40175828 1.6800001 -1.8617518e+38
0.11506503 0.40174887 1.6800001 -1.8617518e+38
0.11965956 0.40173912 1.6800001 -1.835063e+38
0.12417976 0.40148988 1.6790001 -1.835063e+38
0.12869418 0.40124032 1.6780001 -1.8617518e+38
0.13336162 0.40146863 1.6790001 -1.8617518e+38
0.13819847 0.4021748 1.682 -1.835063e+38
0.14313626 0.40311971 1.6860001 -1.8484074e+38
0.14818318 0.40430331 1.6910001 -1.835063e+38
0.15307631 0.40500835 1.6940001 -1.8083742e+38
0.1583578 0.40666926 1.7010001 -1.8484074e+38
0.16319799 0.40713447 1.7030001 -1.8216671e+38
0.16814725 0.40783837 1.7060001 -1.8083742e+38
0.17311248 0.40854198 1.7090001 -1.8217186e+38
0.17819767 0.40948418 1.7130001 -1.7950298e+38
0.18330428 0.41042605 1.7170001 -1.8217186e+38
0.18821327 0.41088954 1.7190001 -1.8484074e+38
0.19313271 0.4113526 1.7210001 -1.8617518e+38
0.19817756 0.41205442 1.7240001 -1.8484074e+38
0.20335597 0.41299489 1.728 -1.8617518e+38
0.20867617 0.41417399 1.733 -1.8750962e+38
0.21377689 0.41487476 1.7360001 -1.8484072e+38
0.21914518 0.41605318 1.7410001 -1.9017848e+38
0.22479747 0.41770908 1.748 -1.875096e+38
0.23048745 0.41936472 1.7550001 -1.9018363e+38
0.23648323 0.42149773 1.7640001 -1.9018363e+38
0.24252759 0.42363045 1.7730001 -1.8751475e+38
0.24931811 0.42695731 1.7870001 -1.9019406e+38
0.25618443 0.43028364 1.8010001 -1.9552139e+38
0.26211175 0.43193707 1.8080001 -1.8484587e+38
0.26851979 0.43430686 1.8180001 -1.8351143e+38
0.27618524 0.43858731 1.8360001 -1.9151807e+38
0.28486717 0.44430029 1.8600001 -1.9151807e+38
0.29149705 0.4466686 1.8700001 -1.8752516e+38
0.29818088 0.44903642 1.8800001 -1.888596e+38
0.30524126 0.45188153 1.8920001 -1.9285249e+38
0.31236646 0.45472616 1.904 -1.9685583e+38
0.31855571 0.45613748 1.9100001 -1.9285251e+38
0.32477713 0.4575485 1.9160001 -1.7951853e+38
0.33378631 0.46277991 1.9380001 -2.0087488e+38
0.032939069 0.40486449 1.7120001 -1.7017234e+38
0.037273843 0.40107766 1.6960001 -1.9419223e+38
0.041817494 0.40012833 1.692 -1.8751475e+38
0.04636658 0.39941514 1.6890001 -1.8617516e+38
0.051019851 0.39964741 1.6900001 -1.8749917e+38
0.055612598 0.39940637 1.6890001 -1.8484074e+38
0.060271036 0.39963788 1.6900001 -1.87494e+38
0.064781159 0.3989231 1.687 -1.8750962e+38
0.069356956 0.39868093 1.6860001 -1.8617516e+38
0.073795445 0.39772895 1.682 -1.8884404e+38
0.078351669 0.39748606 1.6810001 -1.8617516e+38
0.082852833 0.3970063 1.6790001 -1.8617516e+38
0.08749906 0.39723554 1.6800001 -1.8484072e+38
0.092040882 0.39699152 1.6790001 -1.835063e+38
0.096634515 0.39698356 1.6790001 -1.87494e+38
0.10116757 0.39673886 1.6780001 -1.87494e+38
0.10575789 0.39673015 1.6780001 -1.8484074e+38
0.11034791 0.39672109 1.6780001 -1.835063e+38
0.11500614 0.39694816 1.6790001 -1.835063e+38
0.11959826 0.39693841 1.6790001 -1.8484074e+38
0.12426401 0.39716467 1.6800001 -1.8217186e+38
0.1287815 0.39691785 1.6790001 -1.8484074e+38
0.13353144 0.39737985 1.6810001 -1.8217186e+38
0.13837415 0.39807791 1.6840001 -1.835063e+38
0.14331776 0.39901188 1.6880001 -1.835063e+38
0.14819522 0.39970914 1.6910001 -1.835063e+38
0.15317908 0.4006424 1.6950001 -1.7683409e+38
0.15827747 0.40181166 1.7 -1.8217186e+38
0.16321109 0.40250775 1.7030001 -1.7949782e+38
0.16806214 0.40296721 1.705 -1.8083226e+38
0.17332886 0.40437162 1.7110001 -1.7949782e+38
0.17852388 0.4055393 1.7160001 -1.7950298e+38
0.183639 0.4064703 1.72 -1.8217186e+38
0.18833752 0.4064557 1.72 -1.8217186e+38
0.19326004 0.4069134 1.7220001 -1.8217186e+38
0.19807799 0.40713441 1.723 -1.835063e+38
0.20325401 0.40806407 1.7270001 -1.8617518e+38
0.20845136 0.40899327 1.7310001 -1.835063e+38
0.21367005 0.40992221 1.7350001 -1.8484072e+38
0.21891008 0.41085082 1.7390001 -1.9017848e+38
0.22455724 0.4124878 1.7460001 -1.9017848e+38
0.23024206 0.41412437 1.7530001 -1.8884919e+38
0.23623276 0.41623303 1.7620001 -1.8884919e+38
0.24213515 0.41810501 1.7700001 -1.8884919e+38
0.24891786 0.42139384 1.784 -1.9019406e+38
0.25577638 0.42468214 1.7980001 -1.9685583e+38
0.26169583 0.42631665 1.8050001 -1.8218741e+38
0.2679483 0.42842314 1.8140001 -1.7951853e+38
0.27560323 0.43265471 1.8320001 -1.8485629e+38
0.28427476 0.43830255 1.8560001 -1.9552139e+38
0.29120582 0.44111595 1.868 -1.8485627e+38
0.29788449 0.44345665 1.8780001 -1.8752516e+38
0.30526245 0.44674143 1.8920001 -1.9552139e+38
0.3127161 0.45002571 1.9060001 -1.9552139e+38
0.31857747 0.45094845 1.9100001 -1.9018363e+38
0.32496864 0.45257926 1.9170001 -1.7951853e+38
0.33311972 0.45657048 1.9340001 -1.9553709e+38
0.032749481 0.3978745 1.702 -1.8753045e+38
0.03718913 0.39553383 1.692 -1.9152335e+38
0.04174694 0.39482918 1.6890001 -1.875096e+38
0.046370555 0.39482537 1.6890001 -1.8617516e+38
0.051024225 0.39505497 1.6900001 -1.8484072e+38
0.055617362 0.39481667 1.6890001 -1.8484074e+38
0.060240522 0.39481172 1.6890001 -1.8750962e+38
0.064786687 0.39433882 1.687 -1.8484072e+38
0.069321722 0.39386562 1.6850001 -1.875096e+38
0.073801726 0.39315832 1.682 -1.8884404e+38
0.078311697 0.39268437 1.6800001 -1.8617516e+38
0.082810506 0.3922101 1.6780001 -1.8617516e+38
0.087350197 0.39196911 1.677 -1.8617516e+38
0.091993809 0.39219528 1.6780001 -1.8484074e+38
0.096585073 0.39218739 1.6780001 -1.8882844e+38
0.10123636 0.39241281 1.6790001 -1.87494e+38
0.1057037 0.39193666 1.677 -1.8615956e+38
0.11022561 0.39169401 1.6760001 -1.8615956e+38
0.11487868 0.3919183 1.677 -1.8482512e+38
0.11967941 0.39260969 1.6800001 -1.835063e+38
0.12434826 0.39283329 1.6810001 -1.8083742e+38
0.12886882 0.39258915 1.6800001 -1.8217186e+38
0.1335424 0.39281204 1.6810001 -1.8217186e+38
0.13838546 0.39350197 1.6840001 -1.835063e+38
0.14324453 0.39419144 1.687 -1.8482512e+38
0.14820725 0.39511421 1.6910001 -1.8484074e+38
0.15319146 0.3960366 1.6950001 -1.835063e+38
0.15829021 0.3971923 1.7 -1.8083742e+38
0.16332005 0.39811394 1.7040001 -1.8083742e+38
0.16846988 0.39926881 1.7090001 -1.7949782e+38
0.17354527 0.40018967 1.7130001 -1.7949782e+38
0.17843398 0.40064293 1.715 -1.7950298e+38
0.18343994 0.40132952 1.7180001 -1.835063e+38
0.18835229 0.40178207 1.72 -1.8217186e+38
0.19316287 0.40200076 1.7210001 -1.835063e+38
0.19832329 0.40291983 1.725 -1.8484074e+38
0.20338739 0.40360501 1.728 -1.8351672e+38
0.20870823 0.40475696 1.733 -1.8484074e+38
0.21368638 0.40520793 1.7350001 -1.8083742e+38
0.21892668 0.40612563 1.7390001 -1.9017848e+38
0.22444555 0.40751007 1.7450001 -1.875096e+38
0.23052205 0.40982822 1.7550001 -1.8884919e+38
0.23611629 0.41121188 1.761 -1.9018363e+38
0.24215309 0.41329563 1.7700001 -1.8618031e+38
0.24865711 0.41607949 1.7820001 -1.9285251e+38
0.25579506 0.41979674 1.7980001 -1.9685583e+38
0.26171485 0.4214122 1.8050001 -1.8085297e+38
0.26767221 0.42302734 1.812 -1.8085297e+38
0.27517164 0.42697659 1.8290001 -1.8619074e+38
0.28383541 0.43255922 1.853 -1.9419738e+38
0.29107043 0.43580696 1.8670001 -1.8752516e+38
0.29790536 0.43835393 1.8780001 -1.8485627e+38
0.30528367 0.44160062 1.8920001 -1.9418695e+38
0.3130658 0.44531363 1.9080001 -1.9418695e+38
0.31893286 0.44622552 1.9120001 -1.9151807e+38
0.32499063 0.4473705 1.9170001 -1.8085297e+38
0.33245301 0.45038205 1.9300001 -1.8885446e+38
0.34226039 0.45642671 1.9560001 -1.8085827e+38
0.028538002 0.39948958 1.7290001 -2.0087488e+38
0.032694567 0.39255542 1.6990001 -1.9954041e+38
0.037214305 0.39116612 1.6930001 -1.8618558e+38
0.041750517 0.39023855 1.6890001 -1.8884404e+38
0.04634707 0.39000374 1.6880001 -1.8484072e+38
0.050968204 0.3899996 1.6880001 -1.8617516e+38
0.055556238 0.38976395 1.687 -1.8484074e+38
0.060209982 0.38999012 1.6880001 -1.87494e+38
0.064715393 0.38929167 1.6850001 -1.8617518e+38
0.069286466 0.38905492 1.6840001 -1.875096e+38
0.073764108 0.38835579 1.6810001 -1.875096e+38
0.078364953 0.38834932 1.6810001 -1.8884404e+38
0.082866855 0.3878805 1.6790001 -1.8617516e+38
0.087305479 0.38718027 1.6760001 -1.8484072e+38
0.091837071 0.3869417 1.6750001 -1.835063e+38
0.09647806 0.38716483 1.6760001 -1.8482512e+38
0.10112422 0.38738748 1.677 -1.8482512e+38
0.10571253 0.38737884 1.677 -1.8482512e+38
0.11010323 0.38667691 1.674 -1.8482512e+38
0.11475121 0.38689855 1.6750001 -1.87494e+38
0.1194756 0.3873508 1.677 -1.835063e+38
0.12428454 0.38803366 1.6800001 -1.835063e+38
0.1288794 0.38802323 1.6800001 -1.8217186e+38
0.13363281 0.38847443 1.682 -1.8217186e+38
0.13839677 0.38892519 1.6840001 -1.8484074e+38
0.14342605 0.39006847 1.6890001 -1.8217186e+38
0.14830694 0.39074942 1.692 -1.8217186e+38
0.15338461 0.3918919 1.697 -1.8484074e+38
0.15839607 0.39280304 1.7010001 -1.835063e+38
0.16362071 0.39417571 1.7070001 -1.8083742e+38
0.16868049 0.39508608 1.7110001 -1.8083226e+38
0.17376171 0.39599606 1.715 -1.8083226e+38
0.17855215 0.39621302 1.7160001 -1.8083742e+38
0.1833476 0.39642963 1.7170001 -1.7950298e+38
0.18836704 0.39710766 1.72 -1.835063e+38
0.19340241 0.3977854 1.723 -1.8217186e+38
0.19868362 0.3989245 1.728 -1.8484074e+38
0.2037562 0.39960149 1.7310001 -1.8484074e+38
0.20884471 0.40027818 1.7340001 -1.8617518e+38
0.21394902 0.40095454 1.7370001 -1.8217186e+38
0.2191951 0.40186137 1.7410001 -1.875096e+38
0.22484836 0.40346029 1.748 -1.8617516e+38
0.23080203 0.40552044 1.7570001 -1.8884404e+38
0.23613384 0.40642622 1.761 -1.8884919e+38
0.24189739 0.40802398 1.7680001 -1.8618031e+38
0.24825673 0.41054446 1.779 -1.9151807e+38
0.25567147 0.41467986 1.7970001 -1.9284736e+38
0.26173383 0.41650704 1.8050001 -1.8484587e+38
0.26769146 0.41810316 1.812 -1.8085297e+38
0.27504084 0.42177543 1.8280001 -1.8485114e+38
0.28370237 0.42729297 1.8520001 -1.9418695e+38
0.29124686 0.43096402 1.868 -1.9018363e+38
0.29824346 0.4337118 1.8800001 -1.8618029e+38
0.30514345 0.43622836 1.891 -1.9552139e+38
0.31292322 0.43989795 1.9070001 -1.9285251e+38
0.31878781 0.44079897 1.9110001 -1.9151807e+38
0.32501265 0.44216105 1.9170001 -1.8085297e+38
0.3317863 0.44421473 1.9260001 -1.9019406e+38
0.34088323 0.4492662 1.9480001 -1.9420267e+38
0.028177299 0.38976601 1.7070001 -1.7285162e+38
0.032658879 0.38748008 1.697 -1.9686111e+38
0.03721749 0.38656375 1.6930001 -1.8618558e+38
0.041754089 0.38564709 1.6890001 -1.8884404e+38
0.04635103 0.38541499 1.6880001 -1.875096e+38
0.050912157 0.38495418 1.6860001 -1.8484074e+38
0.055528045 0.38494965 1.6860001 -1.8882844e+38
0.060179435 0.38517302 1.687 -1.87494e+38
0.064720891 0.38471112 1.6850001 -1.8617518e+38
0.069251202 0.38424876 1.6830001 -1.8484072e+38
0.073770352 0.38378611 1.6810001 -1.8617516e+38
0.078231707 0.38309476 1.6780001 -1.8617516e+38
0.082725771 0.38263139 1.6760001 -1.8617516e+38
0.087260723 0.38239592 1.6750001 -1.8484074e+38
0.09184479 0.38238841 1.6750001 -1.835063e+38
0.096543707 0.38283712 1.677 -1.835063e+38
0.10125329 0.3832854 1.6790001 -1.8484074e+38
0.10578439 0.38304847 1.6780001 -1.835063e+38
0.11024394 0.38258293 1.6760001 -1.8484074e+38
0.11482924 0.38257363 1.6760001 -1.835063e+38
0.11955672 0.38302043 1.6780001 -1.8217186e+38
0.12429477 0.3834669 1.6800001 -1.8484074e+38
0.12904344 0.38391301 1.682 -1.835063e+38
0.13364375 0.38390228 1.682 -1.8217186e+38
0.13840806 0.38434762 1.6840001 -1.8217186e+38
0.14335278 0.38524908 1.6880001 -1.835063e+38
0.14840661 0.38637841 1.6930001 -1.8617518e+38
0.15357777 0.38773552 1.6990001 -1.8484074e+38
0.15878132 0.38909221 1.705 -1.8484074e+38
0.16382551 0.38999209 1.7090001 -1.7816854e+38
0.16898972 0.39111984 1.7140001 -1.7949782e+38
0.17397813 0.39179075 1.7170001 -1.8350115e+38
0.17887841 0.39223316 1.7190001 -1.8083742e+38
0.18346879 0.39199072 1.7180001 -1.835063e+38
0.1884913 0.39266068 1.7210001 -1.835063e+38
0.19352973 0.39333022 1.7240001 -1.8484074e+38
0.198814 0.39445576 1.7290001 -1.835063e+38
0.20388964 0.39512464 1.7320001 -1.8217186e+38
0.20898116 0.39579317 1.7350001 -1.835063e+38
0.21408848 0.39646134 1.738 -1.835063e+38
0.21946353 0.39758545 1.743 -1.8884406e+38
0.22512259 0.39916536 1.7500001 -1.8617516e+38
0.23095071 0.40097302 1.7580001 -1.9017848e+38
0.23628554 0.4018679 1.7620001 -1.8884404e+38
0.24191527 0.40321854 1.7680001 -1.8616469e+38
0.248275 0.40570918 1.779 -1.9283694e+38
0.25554785 0.40956756 1.7960001 -1.9550582e+38
0.26175281 0.41160113 1.8050001 -1.8350628e+38
0.26756299 0.41295022 1.8110001 -1.8217184e+38
0.27491003 0.41657904 1.8270001 -1.8617516e+38
0.28372249 0.4222593 1.8520001 -1.941818e+38
0.29173517 0.42657089 1.8710001 -1.9151807e+38
0.29842293 0.42883009 1.881 -1.8618029e+38
0.30500329 0.43086088 1.8900001 -1.995091e+38
0.31261659 0.434259 1.9050001 -1.9550578e+38
0.31880957 0.43560505 1.9110001 -1.9417134e+38
0.32503465 0.43695083 1.9170001 -1.8484587e+38
0.33198079 0.43920797 1.927 -1.8485629e+38
0.34125593 0.44442758 1.95 -1.9819555e+38
0.028080661 0.38377103 1.7010001 -1.7418606e+38
0.032623176 0.38241476 1.6950001 -1.9152335e+38
0.037176698 0.3815093 1.6910001 -1.8485114e+38
0.041757654 0.38105476 1.6890001 -1.8617516e+38
0.046354983 0.38082537 1.6880001 -1.8617516e+38
0.05094669 0.38059562 1.687 -1.835063e+38
0.055532768 0.38036549 1.6860001 -1.8882844e+38
0.060148872 0.38036057 1.6860001 -1.87494e+38
0.064687967 0.37990412 1.6840001 -1.87494e+38
0.069257058 0.37967283 1.6830001 -1.875096e+38
0.073732689 0.37899002 1.6800001 -1.875096e+38
0.07833156 0.37898365 1.6800001 -1.8617516e+38
0.082831457 0.37852567 1.6780001 -1.8484072e+38
0.087372258 0.37829295 1.677 -1.8484074e+38
0.091962159 0.37828547 1.677 -1.8617518e+38
0.096609354 0.37850311 1.6780001 -1.8484074e+38
0.10126173 0.37872043 1.6790001 -1.835063e+38
0.10585625 0.37871185 1.6790001 -1.8484074e+38
0.11031886 0.37825173 1.677 -1.795134e+38
0.11490726 0.37824246 1.677 -1.8218228e+38
0.11963782 0.37868387 1.6790001 -1.8484074e+38
0.12445298 0.37935042 1.682 -1.835063e+38
0.12913074 0.37956557 1.6830001 -1.835063e+38
0.13381359 0.37978038 1.6840001 -1.835063e+38
0.13858372 0.38022032 1.6860001 -1.835063e+38
0.14361919 0.38133639 1.6910001 -1.8217186e+38
0.14859393 0.38222665 1.6950001 -1.8217186e+38
0.15395175 0.38401845 1.7030001 -1.835063e+38
0.15907344 0.3851333 1.7080001 -1.8217186e+38
0.16412619 0.38602236 1.7120001 -1.7816854e+38
0.16929895 0.38713649 1.7170001 -1.8083226e+38
0.17439726 0.38802475 1.7210001 -1.8083226e+38
0.17930879 0.38846171 1.723 -1.7816338e+38
0.18391038 0.38822198 1.7220001 -1.7950298e+38
0.18883462 0.38865831 1.7240001 -1.8083742e+38
0.19376928 0.38909426 1.7260001 -1.8217186e+38
0.19894436 0.38998079 1.7300001 -1.8217186e+38
0.2039053 0.39041615 1.7320001 -1.8217186e+38
0.20875619 0.39062572 1.733 -1.7950298e+38
0.21385841 0.39128587 1.7360001 -1.8217186e+38
0.21935421 0.39262176 1.7420001 -1.901785e+38
0.22526819 0.39463344 1.751 -1.8617516e+38
0.23096795 0.39619395 1.7580001 -1.8884404e+38
0.2365713 0.39752871 1.7640001 -1.875096e+38
0.24220681 0.39886311 1.7700001 -1.8749917e+38
0.24843279 0.40109849 1.7800001 -1.9016805e+38
0.25556648 0.40468538 1.7960001 -1.9283694e+38
0.26177177 0.40669447 1.8050001 -1.8483029e+38
0.26758227 0.40802729 1.8110001 -1.8217184e+38
0.2746287 0.41116205 1.825 -1.808374e+38
0.28358939 0.41699967 1.8510001 -1.9151292e+38
0.29175568 0.42148495 1.8710001 -1.9285251e+38
0.29828516 0.42349169 1.8800001 -1.8618031e+38
0.3047016 0.42527276 1.8880001 -1.928369e+38
0.31230983 0.4286302 1.9030001 -1.9684022e+38
0.31883129 0.43041041 1.9110001 -1.9417134e+38
0.32539576 0.43219039 1.9190001 -1.8217699e+38
0.33234769 0.43442032 1.9290001 -1.8217699e+38
0.3423287 0.44047818 1.9560001 -1.9552667e+38
0.023672456 0.38315949 1.7190001 nan
0.028083052 0.37914515 1.7010001 -1.7017234e+38
0.032568213 0.3771365 1.692 -1.8618558e+38
0.037135895 0.3764649 1.6890001 -1.8617516e+38
0.041736484 0.37623864 1.6880001 -1.8883361e+38
0.046386387 0.37645781 1.6890001 -1.835063e+38
0.050981216 0.37623075 1.6880001 -1.8882844e+38
0.055537473 0.37578046 1.6860001 -1.9016288e+38
0.060118292 0.37555271 1.6850001 -1.8882844e+38
0.064731851 0.37554744 1.6850001 -1.8617516e+38
0.069262907 0.37509602 1.6830001 -1.8617516e+38
0.073782802 0.37464425 1.6810001 -1.8617516e+38
0.078244887 0.37396926 1.6780001 -1.875096e+38
0.082739681 0.3735168 1.6760001 -1.8484072e+38
0.087275356 0.37328678 1.6750001 -1.8617518e+38
0.09196984 0.37372506 1.677 -1.8484074e+38
0.096674986 0.37416288 1.6790001 -1.835063e+38
0.10139079 0.37460035 1.6810001 -1.8484074e+38
0.10599113 0.37459177 1.6810001 -1.835063e+38
0.11052536 0.37435994 1.6800001 -1.8218228e+38
0.1150538 0.37412784 1.6790001 -1.8084784e+38
0.1197902 0.37456381 1.6810001 -1.835063e+38
0.12446318 0.37477657 1.682 -1.8217186e+38
0.12921803 0.37521186 1.6840001 -1.835063e+38
0.13390395 0.37542391 1.6850001 -1.835063e+38
0.13875936 0.37608126 1.6880001 -1.835063e+38
0.14371574 0.37696099 1.692 -1.8083742e+38
0.14869358 0.3778404 1.6960001 -1.8217186e+38
0.15396409 0.37938768 1.7030001 -1.8617518e+38
0.1591793 0.38071176 1.7090001 -1.8083742e+38
0.16433102 0.38181269 1.7140001 -1.7816854e+38
0.16950959 0.38291323 1.7190001 -1.8483559e+38
0.1746137 0.38379061 1.723 -1.8083226e+38
0.17963511 0.38444492 1.7260001 -1.7949782e+38
0.18435201 0.38443068 1.7260001 -1.8216671e+38
0.18917798 0.38463888 1.7270001 -1.8083742e+38
0.19400886 0.38484669 1.728 -1.835063e+38
0.19907472 0.38549966 1.7310001 -1.8217186e+38
0.20403868 0.38592952 1.733 -1.8217186e+38
0.2088926 0.38613644 1.7340001 -1.8083742e+38
0.21399784 0.38678843 1.7370001 -1.835063e+38
0.21962263 0.38833073 1.7440001 -1.901785e+38
0.22541375 0.39009532 1.7520001 -1.875096e+38
0.23098519 0.39141414 1.7580001 -1.875096e+38
0.23658888 0.39273265 1.7640001 -1.8617516e+38
0.24236152 0.39427337 1.771 -1.8483029e+38
0.24873011 0.39670417 1.7820001 -1.915025e+38
0.25572741 0.40002498 1.7970001 -1.9149732e+38
0.26179066 0.40178704 1.8050001 -1.87494e+38
0.26745367 0.40288097 1.8100001 -1.8215624e+38
0.27434731 0.40575516 1.8230001 -1.8484072e+38
0.28330308 0.41152221 1.8490001 -1.9284736e+38
0.29162025 0.41617569 1.8700001 -1.9151807e+38
0.29782996 0.41771293 1.8770001 -1.8751475e+38
0.30391571 0.41902724 1.8830001 -1.9151807e+38
0.3118389 0.42278898 1.9000001 -1.9685583e+38
0.31851929 0.42477006 1.909 -1.941818e+38
0.32507858 0.42652828 1.9170001 -1.8351143e+38
0.33236995 0.42917612 1.9290001 -1.835167e+38
0.34182638 0.43449315 1.9530001 -1.9419223e+38
0.023536749 0.37628201 1.7090001 nan
0.028019398 0.37363768 1.697 -1.8084784e+38
0.032551732 0.37231407 1.6910001 -1.8617516e+38
0.037139047 0.37187079 1.6890001 -1.8617516e+38
0.041764747 0.37186745 1.6890001 -1.8882844e+38
0.046390317 0.37186372 1.6890001 -1.8882844e+38
0.051015738 0.37185958 1.6890001 -1.87494e+38
0.055542171 0.37119457 1.6860001 -1.8882844e+38
0.060159046 0.37118971 1.6860001 -1.8484072e+38
0.06469889 0.37074414 1.6840001 -1.8617516e+38
0.069227576 0.37029818 1.682 -1.875096e+38
0.07370121 0.36963177 1.6790001 -1.875096e+38
0.078204811 0.36918509 1.677 -1.835167e+38
0.082746603 0.36895823 1.6760001 -1.8617516e+38
0.08728265 0.36873096 1.6750001 -1.8484074e+38
0.091922663 0.36894366 1.6760001 -1.8484074e+38
0.09662544 0.36937609 1.6780001 -1.835063e+38
0.10133888 0.36980814 1.6800001 -1.835063e+38
0.10599989 0.3700197 1.6810001 -1.8484074e+38
0.11046869 0.36957052 1.6790001 -1.8217186e+38
0.11506326 0.36956125 1.6790001 -1.8217186e+38
0.11972874 0.36977169 1.6800001 -1.8484074e+38
0.12447336 0.37020192 1.682 -1.8217186e+38
0.12915184 0.37041169 1.6830001 -1.835063e+38
0.13391483 0.37084121 1.6850001 -1.8484074e+38
0.1388528 0.37171048 1.6890001 -1.8484074e+38
0.14389724 0.37279943 1.6940001 -1.835063e+38
0.14888088 0.3736679 1.6980001 -1.835063e+38
0.15406685 0.37497616 1.7040001 -1.835063e+38
0.15928514 0.37628397 1.71 -1.8217186e+38
0.16453585 0.37759137 1.7160001 -1.8083742e+38
0.16972025 0.37867832 1.7210001 -1.8350115e+38
0.1749315 0.37976488 1.7260001 -1.7816338e+38
0.17985736 0.380191 1.728 -1.7949782e+38
0.18468687 0.38039681 1.7290001 -1.7949782e+38
0.18941174 0.38038224 1.7290001 -1.8083226e+38
0.194473 0.3810274 1.7320001 -1.8083742e+38
0.19932005 0.3812322 1.733 -1.8083742e+38
0.20428979 0.38165671 1.7350001 -1.8083742e+38
0.20926994 0.38208088 1.7370001 -1.8083742e+38
0.21438366 0.3827247 1.7400001 -1.8617518e+38
0.220017 0.38424799 1.7470001 -1.8750962e+38
0.22581664 0.38599083 1.7550001 -1.8484074e+38
0.2312652 0.38707343 1.7600001 -1.8617518e+38
0.23674051 0.3881557 1.7650001 -1.8484074e+38
0.24251622 0.38967744 1.7720001 -1.8350628e+38
0.24916707 0.39251819 1.7850001 -1.9284736e+38
0.25631523 0.39601806 1.8010001 -1.8750962e+38
0.26195461 0.39709875 1.8060001 -1.8217186e+38
0.26747286 0.39795923 1.8100001 -1.7950298e+38
0.27406579 0.40035838 1.8210001 -1.808374e+38
0.28271013 0.40561509 1.845 -1.9017848e+38
0.29101685 0.41021153 1.8660001 -1.9418695e+38
0.29737461 0.41194966 1.8740001 -1.8352185e+38
0.30377528 0.41368738 1.8820001 -1.9018363e+38
0.31136787 0.41696334 1.8970001 -1.9551624e+38
0.31820726 0.4191398 1.9070001 -1.941818e+38
0.32476136 0.42087632 1.9150001 -1.8084255e+38
0.33204755 0.42349151 1.927 -1.8218741e+38
0.34132391 0.42852366 1.95 -1.8887004e+38
0.019078173 0.37598351 1.7290001 nan
0.02344233 0.37011033 1.702 -1.7018274e+38
0.027972234 0.36836854 1.6940001 -1.861856e+38
0.032515988 0.36727872 1.6890001 -1.875096e+38
0.037098203 0.36684084 1.687 -1.9016805e+38
0.041718818 0.36683753 1.687 -1.8749917e+38
0.046366766 0.36705127 1.6880001 -1.8615956e+38
0.050989836 0.36704719 1.6880001 -1.8484074e+38
0.055579793 0.36682525 1.687 -1.87494e+38
0.060128417 0.36638549 1.6850001 -1.8484072e+38
0.064665906 0.3659454 1.6830001 -1.8617516e+38
0.069151066 0.36528751 1.6800001 -1.8884404e+38
0.073619582 0.36462921 1.677 -1.8617516e+38
0.078118071 0.36418802 1.6750001 -1.8484072e+38
0.082654737 0.36396387 1.674 -1.875096e+38
0.087237798 0.36395684 1.674 -1.8484074e+38
0.091875441 0.36416683 1.6750001 -1.8617518e+38
0.096518278 0.36437646 1.6760001 -1.835063e+38
0.10116627 0.36458567 1.677 -1.835063e+38
0.10581943 0.36479458 1.6780001 -1.8217186e+38
0.11034617 0.36456829 1.677 -1.8217186e+38
0.11500414 0.3647764 1.6780001 -1.835063e+38
0.11973854 0.36520162 1.6800001 -1.8484074e+38
0.12455752 0.3658438 1.6830001 -1.8484074e+38
0.12939255 0.3664856 1.6860001 -1.8217186e+38
0.13400516 0.36647496 1.6860001 -1.835063e+38
0.13886403 0.367116 1.6890001 -1.835063e+38
0.1437389 0.36775672 1.692 -1.835063e+38
0.14880513 0.36883172 1.697 -1.835063e+38
0.15407914 0.37034103 1.7040001 -1.835063e+38
0.15939099 0.37184986 1.7110001 -1.8217186e+38
0.16464475 0.37314099 1.7170001 -1.7816854e+38
0.16983226 0.37421441 1.7220001 -1.8350115e+38
0.17504661 0.37528738 1.7270001 -1.7949782e+38
0.17997552 0.37570807 1.7290001 -1.8215628e+38
0.18491489 0.37612849 1.7310001 -1.8482516e+38
0.1897551 0.37633124 1.7320001 -1.8083226e+38
0.19471255 0.37675095 1.7340001 -1.8083226e+38
0.1995654 0.37695312 1.7350001 -1.8083742e+38
0.20442314 0.37715492 1.7360001 -1.8083742e+38
0.2094063 0.37757364 1.738 -1.8083742e+38
0.21464629 0.37842664 1.7420001 -1.901785e+38
0.22053729 0.38036534 1.751 -1.8884406e+38
0.22634822 0.38208646 1.7590001 -1.8750962e+38
0.23167659 0.38293827 1.7630001 -1.835063e+38
0.23675798 0.38335532 1.7650001 -1.8217186e+38
0.24253401 0.3848581 1.7720001 -1.8484072e+38
0.24946445 0.38809788 1.7870001 -1.9284738e+38
0.25647613 0.39133707 1.802 -1.8752004e+38
0.26211852 0.39240423 1.807 -1.8083742e+38
0.26749197 0.39303669 1.8100001 -1.7817896e+38
0.27408525 0.39540601 1.8210001 -1.7951338e+38
0.28242359 0.40016323 1.8430001 -1.9018891e+38
0.29088128 0.40491977 1.8650001 -1.915285e+38
0.29739529 0.40685329 1.8740001 -1.8352185e+38
0.30363479 0.40835217 1.881 -1.8751475e+38
0.31106088 0.41137031 1.8950001 -1.941818e+38
0.31789511 0.41351968 1.9050001 -1.9017848e+38
0.324444 0.41523451 1.9130001 -1.8350628e+38
0.33172509 0.41781718 1.9250001 -1.8218226e+38
0.34082136 0.42256975 1.9470001 -1.875356e+38
0.018848049 0.36676925 1.7080001 nan
0.02334789 0.36397591 1.6950001 -1.7017753e+38
0.027892031 0.36268535 1.6890001 -1.8618558e+38
0.032480218 0.36225331 1.687 -1.8884404e+38
0.037079342 0.36203566 1.6860001 -1.8484072e+38
0.041697599 0.36203235 1.6860001 -1.8484072e+38
0.046343192 0.36224335 1.687 -1.8617516e+38
0.0509337 0.36202458 1.6860001 -1.8617516e+38
0.05551856 0.36180541 1.6850001 -1.8484072e+38
0.060062081 0.3613711 1.6830001 -1.875096e+38
0.064594455 0.36093646 1.6810001 -1.875096e+38
0.069115676 0.36050147 1.6790001 -1.8884404e+38
0.073581815 0.35985139 1.6760001 -1.875096e+38
0.078077935 0.35941568 1.674 -1.8617516e+38
0.082661614 0.35940897 1.674 -1.8617516e+38
0.087245025 0.35940194 1.674 -1.8484074e+38
0.091773331 0.35917988 1.6730001 -1.8484074e+38
0.096353456 0.35917214 1.6730001 -1.8484074e+38
0.10105395 0.35959339 1.6750001 -1.8217186e+38
0.10576505 0.36001426 1.677 -1.835063e+38
0.1102894 0.35979074 1.6760001 -1.835063e+38
0.11494501 0.3599962 1.677 -1.835063e+38
0.11960573 0.3602013 1.6780001 -1.8217186e+38
0.12456764 0.36126471 1.6830001 -1.835063e+38
0.12932627 0.3616837 1.6850001 -1.8484074e+38
0.13401598 0.36188775 1.6860001 -1.835063e+38
0.1388752 0.36252069 1.6890001 -1.8750962e+38
0.14383538 0.36336792 1.6930001 -1.8217186e+38
0.14890471 0.36442932 1.6980001 -1.8484074e+38
0.15418182 0.36591959 1.705 -1.8484074e+38
0.15949678 0.3674095 1.7120001 -1.835063e+38
0.16494545 0.3691135 1.72 -1.8217186e+38
0.17004286 0.36995873 1.7240001 -1.8083226e+38
0.17526305 0.37101817 1.7290001 -1.7816338e+38
0.18009365 0.37121889 1.7300001 -1.8215628e+38
0.18503608 0.37163386 1.7320001 -1.8215628e+38
0.18987931 0.37183392 1.733 -1.8349072e+38
0.19495213 0.37246281 1.7360001 -1.8349068e+38
0.19969568 0.3724477 1.7360001 -1.8083742e+38
0.20455647 0.37264684 1.7370001 -1.7950298e+38
0.2093017 0.37263122 1.7370001 -1.8083742e+38
0.21466248 0.37368783 1.7420001 -1.901785e+38
0.22080576 0.37603116 1.7530001 -1.8884406e+38
0.22662245 0.37773043 1.761 -1.8484074e+38
0.23195659 0.37857142 1.7650001 -1.835063e+38
0.23690955 0.37876862 1.766 -1.8217186e+38
0.24296238 0.38068131 1.7750001 -1.8750962e+38
0.2497618 0.38366589 1.789 -1.9018893e+38
0.25677934 0.38686436 1.8040001 -1.8351672e+38
0.2618472 0.38706014 1.8050001 -1.7817896e+38
0.26736325 0.38789898 1.8090001 -1.795134e+38
0.27365312 0.38980961 1.8180001 -1.8084782e+38
0.28213692 0.39472142 1.8410001 -1.9152335e+38
0.29058963 0.39941823 1.863 -1.9419223e+38
0.29725718 0.40154171 1.8730001 -1.8218741e+38
0.30365568 0.40323597 1.881 -1.8751475e+38
0.31091797 0.40600175 1.8940001 -1.9818512e+38
0.3177498 0.408124 1.904 -1.9284736e+38
0.3241266 0.40960276 1.9110001 -1.8217184e+38
0.33157486 0.41236717 1.9240001 -1.7951338e+38
0.34066886 0.41705999 1.9460001 -1.875356e+38
0.014336195 0.36636239 1.728 nan
0.018761344 0.36042455 1.7 -1.7015676e+38
0.023308525 0.35872668 1.692 -1.8619601e+38
0.027877858 0.35787654 1.6880001 -1.875096e+38
0.032482948 0.35766196 1.687 -1.875096e+38
0.037082456 0.35744703 1.6860001 -1.875096e+38
0.041676369 0.35723177 1.6850001 -1.875096e+38
0.046347078 0.35765207 1.687 -1.8617516e+38
0.050937962 0.357436 1.6860001 -1.8617516e+38
0.055523198 0.35721952 1.6850001 -1.8617516e+38
0.060031407 0.35657874 1.682 -1.875096e+38
0.064599842 0.35636154 1.6810001 -1.875096e+38
0.069080256 0.35572004 1.6780001 -1.8484072e+38
0.073544018 0.35507816 1.6750001 -1.8617516e+38
0.077991113 0.35443592 1.6720001 -1.8617516e+38
0.082569689 0.35442927 1.6720001 -1.8617516e+38
0.08720012 0.35463426 1.6730001 -1.9016288e+38
0.091780894 0.35462689 1.6730001 -1.8484074e+38
0.096361369 0.35461915 1.6730001 -1.835063e+38
0.10106222 0.35503498 1.6750001 -1.835063e+38
0.10577372 0.35545045 1.677 -1.835063e+38
0.1103642 0.35544163 1.677 -1.835063e+38
0.11495435 0.35543248 1.677 -1.835063e+38
0.11968673 0.35584691 1.6790001 -1.8484074e+38
0.12457771 0.35668474 1.6830001 -1.8484074e+38
0.1293367 0.35709837 1.6850001 -1.835063e+38
0.13410623 0.35751164 1.687 -1.8484074e+38
0.13888632 0.35792455 1.6890001 -1.835063e+38
0.1437619 0.35854903 1.692 -1.8617518e+38
0.14882885 0.35959691 1.697 -1.8617518e+38
0.15410361 0.36106819 1.7040001 -1.835063e+38
0.15969571 0.36317474 1.7140001 -1.8217186e+38
0.16524614 0.36506885 1.723 -1.8217186e+38
0.17045073 0.36611509 1.728 -1.7949782e+38
0.17547946 0.36673725 1.7310001 -1.8083226e+38
0.18031587 0.36693531 1.7320001 -1.8482516e+38
0.18505037 0.36692113 1.7320001 -1.8349072e+38
0.18989393 0.36711857 1.733 -1.8215628e+38
0.19507937 0.36795118 1.7370001 -1.8083742e+38
0.20005603 0.36835974 1.7390001 -1.8217186e+38
0.20480752 0.36834437 1.7390001 -1.8083742e+38
0.20943797 0.36811692 1.738 -1.835063e+38
0.21492504 0.3693718 1.7440001 -1.8884406e+38
0.22107416 0.37168524 1.7550001 -1.8617518e+38
0.22663927 0.37293926 1.761 -1.8484074e+38
0.23210515 0.37398118 1.766 -1.8217186e+38
0.23706107 0.37417573 1.7670001 -1.8083742e+38
0.24311699 0.37606397 1.7760001 -1.8884406e+38
0.24977991 0.37879875 1.789 -1.8752004e+38
0.25665548 0.38174474 1.8030001 -1.8084784e+38
0.26201102 0.38236135 1.8060001 -1.7684452e+38
0.26753005 0.38318929 1.8100001 -1.7684452e+38
0.27382296 0.38507548 1.8190001 -1.8084784e+38
0.28215674 0.38971314 1.8410001 -1.9152335e+38
0.29060987 0.39435011 1.863 -1.8752002e+38
0.29711899 0.39623481 1.8720001 -1.8352185e+38
0.30351508 0.39790744 1.8800001 -1.8751475e+38
0.31077495 0.40063787 1.8930001 -1.9685068e+38
0.31777123 0.40294459 1.904 -1.941818e+38
0.32414833 0.40440443 1.9110001 -1.8350628e+38
0.33159691 0.40713352 1.9240001 -1.8218226e+38
0.3406913 0.41176653 1.9460001 -1.8753045e+38
0.014138266 0.35663545 1.7040001 nan
0.018685658 0.35433185 1.6930001 -1.7818937e+38
0.023255369 0.35328361 1.6880001 -1.9152335e+38
0.027863674 0.3530722 1.687 -1.9017848e+38
0.032466408 0.35286039 1.6860001 -1.8617516e+38
0.037085555 0.3528575 1.6860001 -1.875096e+38
0.04170458 0.35285425 1.6860001 -1.875096e+38
0.046323467 0.35285056 1.6860001 -1.8350628e+38
0.050881781 0.35242796 1.6840001 -1.8617516e+38
0.055428956 0.35200495 1.682 -1.8883361e+38
0.059929315 0.35137239 1.6790001 -1.8884404e+38
0.064528339 0.35136721 1.6790001 -1.8884404e+38
0.069044814 0.35094315 1.677 -1.8884404e+38
0.073506191 0.35030943 1.674 -1.8484072e+38
0.07795091 0.34967542 1.6710001 -1.8617516e+38
0.082477711 0.34945956 1.6700001 -1.8484072e+38
0.087103032 0.34966186 1.6710001 -1.9016288e+38
0.091788426 0.35007307 1.6730001 -1.8882844e+38
0.096484467 0.35048383 1.6750001 -1.8615956e+38
0.10113083 0.35068503 1.6760001 -1.8217186e+38
0.10584541 0.35109508 1.6780001 -1.835063e+38
0.110439 0.35108626 1.6780001 -1.8217186e+38
0.11503223 0.3510772 1.6780001 -1.835063e+38
0.11962511 0.35106769 1.6780001 -1.8484074e+38
0.1244397 0.35168552 1.6810001 -1.835063e+38
0.12919356 0.35209376 1.6830001 -1.8484074e+38
0.13411698 0.35292006 1.687 -1.8617518e+38
0.13897963 0.35353675 1.6900001 -1.8617518e+38
0.14402823 0.35457143 1.6950001 -1.8617518e+38
0.14901607 0.3553966 1.6990001 -1.8617518e+38
0.1543871 0.35705802 1.7070001 -1.8617518e+38
0.15998779 0.35913733 1.7170001 -1.8484074e+38
0.16554682 0.36100706 1.7260001 -1.8217186e+38
0.17066133 0.36183056 1.7300001 -1.7949782e+38
0.17569584 0.36244455 1.733 -1.7949782e+38
0.18043391 0.36243078 1.733 -1.7949782e+38
0.18527833 0.36262584 1.7340001 -1.8083226e+38
0.19001807 0.36261147 1.7340001 -1.7949782e+38
0.19531886 0.36364231 1.7390001 -1.7950298e+38
0.20018628 0.36383644 1.7400001 -1.7950298e+38
0.20505856 0.36403018 1.7410001 -1.8083742e+38
0.20969474 0.36380553 1.7400001 -1.835063e+38
0.21518758 0.36504409 1.7460001 -1.8617518e+38
0.22121654 0.36711854 1.756 -1.835063e+38
0.22678472 0.36835632 1.7620001 -1.8217186e+38
0.23225363 0.36938468 1.7670001 -1.8083742e+38
0.2372126 0.3695766 1.7680001 -1.835063e+38
0.24340847 0.37164941 1.7780001 -1.901785e+38
0.25021681 0.37455788 1.7920001 -1.8884406e+38
0.25681627 0.37704778 1.8040001 -1.8484074e+38
0.26202971 0.37744728 1.8060001 -1.835063e+38
0.26740122 0.37805548 1.8090001 -1.7950298e+38
0.27384222 0.38012618 1.8190001 -1.8484074e+38
0.28232974 0.38491303 1.8420001 -1.9551624e+38
0.29078603 0.38949019 1.8640001 -1.9151292e+38
0.29729822 0.39135048 1.8730001 -1.8618031e+38
0.30369729 0.39300135 1.881 -1.8484072e+38
0.31096026 0.39569649 1.8940001 -1.9551624e+38
0.31779262 0.39776444 1.904 -1.941818e+38
0.32416999 0.3992053 1.9110001 -1.8350628e+38
0.33161893 0.40189913 1.9240001 -1.8484072e+38
0.34053862 0.40626341 1.9450001 -1.8886491e+38
0.014064766 0.35013682 1.6950001 -1.7015676e+38
0.018654102 0.34910259 1.6900001 -1.8753045e+38
0.023229754 0.34827459 1.6860001 -1.8619074e+38
0.027865997 0.34847903 1.687 -1.8617516e+38
0.032449853 0.34806338 1.6850001 -1.8484072e+38
0.03708864 0.34826708 1.6860001 -1.8617516e+38
0.041708045 0.3482638 1.6860001 -1.8617518e+38
0.046354789 0.34846669 1.687 -1.8350628e+38
0.050855778 0.34763646 1.6830001 -1.8617516e+38
0.055400588 0.34721893 1.6810001 -1.8883361e+38
0.059862874 0.34638798 1.677 -1.8617516e+38
0.064418361 0.3461763 1.6760001 -1.8617516e+38
0.068926975 0.34575772 1.674 -1.875096e+38
0.073468328 0.34554532 1.6730001 -1.8484072e+38
0.077910662 0.3449195 1.6700001 -1.8617516e+38
0.082484484 0.34491295 1.6700001 -1.8217184e+38
0.087162286 0.34531906 1.6720001 -1.8617518e+38
0.091905661 0.34593135 1.6750001 -1.87494e+38
0.096607544 0.34633672 1.677 -1.835063e+38
0.10119939 0.34632871 1.677 -1.8484074e+38
0.10585399 0.34652683 1.6780001 -1.835063e+38
0.11051375 0.34672463 1.6790001 -1.8217186e+38
0.11517862 0.34692201 1.6800001 -1.835063e+38
0.11977732 0.34691259 1.6800001 -1.8484074e+38
0.12444967 0.34710929 1.6810001 -1.8217186e+38
0.12928067 0.34771863 1.6840001 -1.8617518e+38
0.13412766 0.34832758 1.687 -1.8617518e+38
0.13907291 0.34914264 1.6910001 -1.8617518e+38
0.14395466 0.34975085 1.6940001 -1.8617518e+38
0.14902781 0.35077158 1.6990001 -1.8617518e+38
0.15448968 0.35261777 1.7080001 -1.8484074e+38
0.16027988 0.35508281 1.72 -1.8217186e+38
0.16565566 0.3565152 1.7270001 -1.8217186e+38
0.1708719 0.35753432 1.7320001 -1.7816338e+38
0.17581083 0.35793373 1.7340001 -1.7816338e+38
0.1808643 0.35853925 1.7370001 -1.7816338e+38
0.18550624 0.35831881 1.7360001 -1.8083226e+38
0.19047093 0.35871726 1.738 -1.8216671e+38
0.19544606 0.35911539 1.7400001 -1.7950298e+38
0.20031646 0.35930681 1.7410001 -1.7950298e+38
0.20519179 0.35949793 1.7420001 -1.835063e+38
0.21007201 0.35968876 1.743 -1.8617518e+38
0.2155734 0.36091104 1.7490001 -1.8484074e+38
0.22135895 0.36254567 1.7570001 -1.8617518e+38
0.22693017 0.36376715 1.7630001 -1.8217186e+38
0.2321392 0.3643693 1.766 -1.8083742e+38
0.23749821 0.36517745 1.7700001 -1.8083742e+38
0.24356298 0.36701685 1.779 -1.901785e+38
0.25051409 0.37009352 1.794 -1.8884406e+38
0.25683463 0.37213832 1.8040001 -1.835063e+38
0.26204833 0.3725324 1.8060001 -1.7950298e+38
0.26727226 0.37292627 1.8080001 -1.8083742e+38
0.27386147 0.3751761 1.8190001 -1.8083742e+38
0.28234938 0.37990043 1.8420001 -1.9685068e+38
0.29080614 0.38441786 1.8640001 -1.9017848e+38
0.29715991 0.38604742 1.8720001 -1.8618031e+38
0.30355656 0.38767666 1.8800001 -1.875096e+38
0.31081712 0.39033651 1.8930001 -1.9284736e+38
0.31814781 0.39299586 1.9060001 -1.9151292e+38
0.32436118 0.3942115 1.9120001 -1.8350628e+38
0.33181319 0.39687002 1.9250001 -1.8484072e+38
0.34056091 0.40097114 1.9450001 -1.9019935e+38
0.0094932299 0.34817183 1.7080001 nan
0.014057635 0.34531707 1.6940001 -1.755205e+38
0.018633574 0.34409261 1.6880001 -1.9018891e+38
0.0232179 0.34347931 1.6850001 -1.8884404e+38
0.027835267 0.34347722 1.6850001 -1.8883361e+38
0.032452539 0.34347472 1.6850001 -1.875096e+38
0.03709171 0.3436757 1.6860001 -1.8882844e+38
0.04173623 0.34387624 1.687 -1.8484074e+38
0.046331141 0.34366885 1.6860001 -1.8617516e+38
0.050829757 0.34284949 1.682 -1.875096e+38
0.05533924 0.3422336 1.6790001 -1.9016805e+38
0.059832107 0.34161741 1.6760001 -1.9016805e+38
0.064385213 0.34140846 1.6750001 -1.8617516e+38
0.06893263 0.34119919 1.674 -1.875096e+38
0.073430426 0.34078571 1.6720001 -1.8484072e+38
0.077917024 0.34037191 1.6700001 -1.8617516e+38
0.082540609 0.3405692 1.6710001 -1.8617516e+38
0.087221526 0.34096989 1.6730001 -1.8617518e+38
0.091913126 0.34137025 1.6750001 -1.8617518e+38
0.096557774 0.34156644 1.6760001 -1.8484074e+38
0.10114723 0.34155846 1.6760001 -1.8482512e+38
0.10579944 0.34175387 1.677 -1.8217186e+38
0.11045681 0.34194899 1.6780001 -1.8083742e+38
0.11518786 0.34234753 1.6800001 -1.8217186e+38
0.11978691 0.34233814 1.6800001 -1.835063e+38
