# .PCD v0.7 - Point Cloud Data file format
VERSION 0.7
FIELDS x y z rgb
SIZE 4 4 4 4
TYPE F F F F
COUNT 1 1 1 1
WIDTH 1030
HEIGHT 1
VIEWPOINT 0 0 0 1 0 0 0
POINTS 1030
DATA ascii
0.29344365 0.35984758 1.817 -1.8750962e+38
0.30004075 0.36180815 1.8270001 -1.8484074e+38
0.30552298 0.36238211 1.83 -1.8217186e+38
0.31102094 0.3629559 1.8330001 -1.7950298e+38
0.31618965 0.36313337 1.8340001 -1.8083742e+38
0.32223874 0.36430061 1.84 -1.7950298e+38
0.33027628 0.36764538 1.8570001 -1.8750962e+38
0.34057271 0.37336513 1.886 -1.9016288e+38
0.34955993 0.37750047 1.9070001 -1.8482512e+38
0.35605645 0.37886396 1.914 -1.7949782e+38
0.36202416 0.3796334 1.9180001 -1.7949782e+38
0.36705554 0.37941301 1.9170001 -1.7816338e+38
0.37266329 0.37978625 1.9190001 -1.7683409e+38
0.37828127 0.38015935 1.9210001 -1.8484074e+38
0.38430861 0.38092801 1.9250001 -1.8617516e+38
0.39076176 0.3820923 1.9310001 -1.8619074e+38
0.39909267 0.38503712 1.9460001 -1.8620116e+38
-0.10783681 0.35035896 1.7910001 nan
-0.10247154 0.34880233 1.7830001 -1.7552048e+38
-0.097259209 0.34763649 1.7770001 -1.8752516e+38
-0.092183419 0.34686151 1.7730001 -1.9418693e+38
-0.087079987 0.34589049 1.7680001 -1.9418693e+38
-0.082003661 0.34491906 1.7630001 -1.9819026e+38
-0.076604277 0.34238201 1.7500001 -1.995247e+38
-0.071481034 0.34082276 1.7420001 -1.9151805e+38
-0.066439696 0.33945876 1.7350001 -1.8751475e+38
-0.061649803 0.33926827 1.7340001 -1.8484072e+38
-0.056865185 0.33907735 1.733 -1.8484074e+38
-0.05211594 0.33908179 1.733 -1.8217186e+38
-0.047366507 0.33908579 1.733 -1.835063e+38
-0.042567741 0.33869812 1.7310001 -1.8484074e+38
-0.037801638 0.33850574 1.7300001 -1.835063e+38
-0.033040892 0.33831289 1.7290001 -1.835063e+38
-0.028285511 0.33811972 1.728 -1.8217186e+38
-0.02353552 0.33792618 1.7270001 -1.835063e+38
-0.018790925 0.3377322 1.7260001 -1.8617518e+38
-0.014059898 0.33773354 1.7260001 -1.8083742e+38
-0.0093288217 0.33773446 1.7260001 -1.835063e+38
-0.0045977142 0.33773509 1.7260001 -1.8083742e+38
0.00013340944 0.33773524 1.7260001 -1.8083742e+38
0.0048701693 0.33812639 1.728 -1.8217186e+38
0.0096123172 0.33832148 1.7290001 -1.8217186e+38
0.014376517 0.33890751 1.7320001 -1.7950298e+38
0.019168152 0.33968884 1.7360001 -1.7949782e+38
0.024009218 0.34086114 1.7420001 -1.8083226e+38
0.02888309 0.342033 1.748 -1.7816338e+38
0.033751234 0.34281319 1.7520001 -1.7682894e+38
0.038575172 0.34300593 1.7530001 -1.7816338e+38
0.043330211 0.34261122 1.751 -1.7682894e+38
0.048074152 0.34221619 1.7490001 -1.7816338e+38
0.052776739 0.34162515 1.7460001 -1.7949782e+38
0.057528637 0.34142506 1.7450001 -1.7816338e+38
0.062239155 0.3410289 1.743 -1.7550493e+38
0.066976942 0.34082803 1.7420001 -1.7949782e+38
0.071585461 0.34003982 1.738 -1.8083226e+38
0.076215759 0.33944696 1.7350001 -1.7949782e+38
0.080876023 0.33904937 1.733 -1.7949782e+38
0.0857227 0.33943403 1.7350001 -1.7949782e+38
0.090580031 0.33981824 1.7370001 -1.7816338e+38
0.095393144 0.34000641 1.738 -1.7949782e+38
0.10009617 0.33980304 1.7370001 -1.7816338e+38
0.10479338 0.33959925 1.7360001 -1.7949782e+38
0.10948478 0.3393952 1.7350001 -1.7949782e+38
0.11423621 0.33938634 1.7350001 -1.8216671e+38
0.11905581 0.33957276 1.7360001 -1.7950298e+38
0.12409447 0.34034562 1.7400001 -1.8217186e+38
0.12915464 0.3411181 1.7440001 -1.7950298e+38
0.13438989 0.34228137 1.7500001 -1.8083742e+38
0.13910083 0.34207514 1.7490001 -1.7684452e+38
0.14388812 0.34206414 1.7490001 -1.7949782e+38
0.14875998 0.34224838 1.7500001 -1.7949782e+38
0.15372458 0.34262788 1.7520001 -1.7816338e+38
0.15842822 0.34242031 1.751 -1.7949782e+38
0.16303267 0.34201691 1.7490001 -1.7950298e+38
0.16781759 0.34200427 1.7490001 -1.8083742e+38
0.17289805 0.34257796 1.7520001 -1.8217186e+38
0.17850152 0.34412894 1.7600001 -1.8617518e+38
0.18383572 0.34509289 1.7650001 -1.835063e+38
0.18908983 0.34586096 1.7690001 -1.8217186e+38
0.19414601 0.34623763 1.771 -1.8083742e+38
0.19943726 0.34700498 1.7750001 -1.835063e+38
0.20474982 0.34777203 1.779 -1.8484074e+38
0.20973018 0.34795222 1.7800001 -1.8484074e+38
0.21495651 0.34852308 1.7830001 -1.8217186e+38
0.21995205 0.34870267 1.784 -1.8217186e+38
0.22520445 0.34927285 1.7870001 -1.8217186e+38
0.23008637 0.34925646 1.7870001 -1.8083742e+38
0.23496765 0.34923974 1.7870001 -1.7950298e+38
0.2398483 0.34922278 1.7870001 -1.7950298e+38
0.24527611 0.34998727 1.7910001 -1.8083742e+38
0.25072503 0.35075137 1.7950001 -1.835063e+38
0.2566224 0.35210136 1.802 -1.8484074e+38
0.2618317 0.35247406 1.8040001 -1.8083742e+38
0.26690328 0.35265112 1.8050001 -1.7683409e+38
0.27182904 0.35263258 1.8050001 -1.8083226e+38
0.27706078 0.35300452 1.807 -1.8083226e+38
0.28214669 0.35318086 1.8080001 -1.7950298e+38
0.28755489 0.35374764 1.8110001 -1.8083742e+38
0.29362485 0.35509545 1.8180001 -1.8617518e+38
0.30006072 0.35683358 1.8270001 -1.8617518e+38
0.30571014 0.35759479 1.8310001 -1.835063e+38
0.3110413 0.35796514 1.8330001 -1.8083742e+38
0.31655502 0.35853055 1.8360001 -1.7950298e+38
0.32260984 0.35968158 1.8420001 -1.7950298e+38
0.33100885 0.3633706 1.8610001 -1.8884406e+38
0.34149724 0.36920676 1.891 -1.8884406e+38
0.34994853 0.3726992 1.909 -1.7950298e+38
0.35626474 0.37384856 1.9150001 -1.7816338e+38
0.36204651 0.37441194 1.9180001 -1.7949782e+38
0.36746097 0.37458479 1.9190001 -1.7816338e+38
0.37326851 0.37514782 1.9220001 -1.7950298e+38
0.37889481 0.37551558 1.9240001 -1.835063e+38
0.38453114 0.3758831 1.9260001 -1.8484072e+38
0.39139193 0.37742147 1.9340001 -1.8485629e+38
0.39993629 0.38052058 1.95 -1.875356e+38
-0.11426176 0.35009903 1.8150001 nan
-0.1077249 0.34509245 1.789 -1.7015676e+38
-0.1023647 0.3435576 1.7810001 -1.8886489e+38
-0.097212195 0.34260094 1.7760001 -1.8752516e+38
-0.092086755 0.3416439 1.771 -1.9151805e+38
-0.086939156 0.34049353 1.7650001 -1.9552137e+38
-0.081777625 0.33914983 1.7580001 -2.0085914e+38
-0.07647907 0.33703402 1.7470001 -1.9819026e+38
-0.071445726 0.33588237 1.7410001 -1.9018361e+38
-0.066445015 0.33473033 1.7350001 -1.8617516e+38
-0.061690316 0.33473545 1.7350001 -1.8350628e+38
-0.056869768 0.33435437 1.733 -1.835063e+38
-0.052150216 0.33455166 1.7340001 -1.8617518e+38
-0.047370329 0.33436269 1.733 -1.8484074e+38
-0.042595766 0.33417338 1.7320001 -1.8217186e+38
-0.037804693 0.33379075 1.7300001 -1.8484074e+38
-0.033043563 0.33360067 1.7290001 -1.835063e+38
-0.028287798 0.33341017 1.728 -1.835063e+38
-0.023551052 0.33341226 1.728 -1.835063e+38
-0.018814223 0.33341396 1.728 -1.8484074e+38
-0.014069184 0.33322239 1.7270001 -1.8217186e+38
-0.0093295788 0.33303037 1.7260001 -1.8217186e+38
-0.0046007507 0.33322388 1.7270001 -1.8217186e+38
0.00013357487 0.333417 1.728 -1.8083742e+38
0.0048762015 0.3338027 1.7300001 -1.7950298e+38
0.0096242167 0.33399507 1.7310001 -1.8083742e+38
0.014394283 0.33457294 1.7340001 -1.8083226e+38
0.019169707 0.33495748 1.7360001 -1.8083226e+38
0.023997379 0.33592051 1.7410001 -1.7816338e+38
0.028885428 0.33726895 1.748 -1.7949782e+38
0.033792492 0.33842412 1.7540001 -1.7682894e+38
0.038600292 0.3384212 1.7540001 -1.781634e+38
0.043383215 0.33822498 1.7530001 -1.781634e+38
0.048133008 0.33783537 1.751 -1.7816338e+38
0.052841451 0.33725253 1.748 -1.7683937e+38
0.057533264 0.3366693 1.7450001 -1.7683937e+38
0.062315572 0.33666447 1.7450001 -1.7550493e+38
0.067059226 0.3364664 1.7440001 -1.8083226e+38
0.071714781 0.33588207 1.7410001 -1.8083226e+38
0.07626579 0.33491153 1.7360001 -1.7949782e+38
0.080975823 0.33471236 1.7350001 -1.7816338e+38
0.085828349 0.33509156 1.7370001 -1.7816338e+38
0.090639398 0.33527747 1.738 -1.7949782e+38
0.095455617 0.33546302 1.7390001 -1.7816338e+38
0.10021937 0.3354553 1.7390001 -1.7816338e+38
0.10486205 0.3350614 1.7370001 -1.7682894e+38
0.10955652 0.33486006 1.7360001 -1.8083226e+38
0.11424518 0.33465841 1.7350001 -1.8216671e+38
0.11913373 0.33503503 1.7370001 -1.8216671e+38
0.12424683 0.33598992 1.7420001 -1.7817896e+38
0.1293869 0.3369444 1.7470001 -1.7817381e+38
0.13440034 0.33751279 1.7500001 -1.7950825e+38
0.13911161 0.33730933 1.7490001 -1.7817381e+38
0.14398153 0.3374913 1.7500001 -1.7816338e+38
0.14885645 0.33767286 1.751 -1.7949782e+38
0.15382414 0.33804697 1.7530001 -1.7816338e+38
0.15862131 0.33803505 1.7530001 -1.8083226e+38
0.16313833 0.33744434 1.7500001 -1.8083742e+38
0.16792628 0.33743173 1.7500001 -1.8083742e+38
0.17300981 0.33799732 1.7530001 -1.8484074e+38
0.17871782 0.33971936 1.7620001 -1.8617518e+38
0.18405782 0.34066975 1.7670001 -1.835063e+38
0.18921086 0.34123424 1.7700001 -1.8217186e+38
0.19416043 0.34141275 1.771 -1.7950298e+38
0.19945204 0.34216934 1.7750001 -1.835063e+38
0.2047649 0.34292552 1.779 -1.8217186e+38
0.20986338 0.34329584 1.7810001 -1.835063e+38
0.21509273 0.3438586 1.784 -1.8083742e+38
0.22021461 0.34422833 1.7860001 -1.8217186e+38
0.22534676 0.34459773 1.7880001 -1.7950298e+38
0.22997415 0.34419593 1.7860001 -1.8217186e+38
0.23472145 0.34398663 1.7850001 -1.8083742e+38
0.23986535 0.34435517 1.7870001 -1.8217186e+38
0.24543038 0.34530154 1.7920001 -1.835063e+38
0.25116175 0.34644023 1.7980001 -1.8484074e+38
0.25721002 0.34796387 1.8060001 -1.835063e+38
0.26214015 0.34794587 1.8060001 -1.7950298e+38
0.26736528 0.34831291 1.8080001 -1.7949782e+38
0.27214885 0.34810179 1.807 -1.8083226e+38
0.27723297 0.34827578 1.8080001 -1.8083226e+38
0.28185359 0.34787163 1.8060001 -1.8084784e+38
0.28709784 0.34823775 1.8080001 -1.795134e+38
0.29348284 0.3499518 1.817 -1.861856e+38
0.30040902 0.35224327 1.8290001 -1.8351672e+38
0.30589718 0.35280114 1.8320001 -1.8218228e+38
0.31123126 0.35316616 1.8340001 -1.7950298e+38
0.3165755 0.35353094 1.8360001 -1.7950298e+38
0.32315597 0.35524338 1.845 -1.8217186e+38
0.33191931 0.35926577 1.8660001 -1.8884406e+38
0.34242183 0.3650203 1.8960001 -1.8617518e+38
0.3505204 0.36807883 1.9120001 -1.7950298e+38
0.35665891 0.36901936 1.9170001 -1.7949782e+38
0.36225757 0.3693822 1.9190001 -1.7816338e+38
0.36786634 0.3697449 1.9210001 -1.754945e+38
0.37348533 0.37010741 1.9230001 -1.7950298e+38
0.37911439 0.37046978 1.9250001 -1.8484074e+38
0.38455391 0.37063953 1.9260001 -1.8484072e+38
0.39121252 0.37196377 1.9330001 -1.8218741e+38
0.3999595 0.37521186 1.95 -1.8486672e+38
-0.11326336 0.34210938 1.7990001 nan
-0.10749248 0.33945563 1.7850001 -1.7552048e+38
-0.10225779 0.33832282 1.779 -1.875356e+38
-0.097219862 0.33776012 1.7760001 -1.888596e+38
-0.092094034 0.33681664 1.771 -1.9285249e+38
-0.086896785 0.3354924 1.7640001 -1.9418693e+38
-0.081598029 0.33359715 1.7540001 -1.995247e+38
-0.076353803 0.33170146 1.7440001 -1.9285249e+38
-0.071410373 0.33094653 1.7400001 -1.9151807e+38
-0.06652692 0.33038139 1.7370001 -1.8617516e+38
-0.061730798 0.33019629 1.7360001 -1.8617516e+38
-0.056907129 0.3298206 1.7340001 -1.8484074e+38
-0.052184463 0.33001515 1.7350001 -1.8617518e+38
-0.047428802 0.33001915 1.7350001 -1.8484074e+38
-0.042648375 0.32983249 1.7340001 -1.8484074e+38
-0.037829582 0.32926512 1.7310001 -1.835063e+38
-0.033065334 0.32907772 1.7300001 -1.835063e+38
-0.02832282 0.32908016 1.7300001 -1.8484074e+38
-0.02358021 0.32908225 1.7300001 -1.8217186e+38
-0.018815739 0.32870352 1.728 -1.795134e+38
-0.014070316 0.32851461 1.7270001 -1.795134e+38
-0.0093357349 0.32851553 1.7270001 -1.835063e+38
-0.0046011214 0.3285161 1.7270001 -1.795134e+38
0.00013374022 0.32908693 1.7300001 -1.795134e+38
0.0048822318 0.32946718 1.7320001 -1.8083742e+38
0.0096361116 0.32965681 1.733 -1.7949782e+38
0.014387141 0.32965586 1.733 -1.8083226e+38
0.019160205 0.33003494 1.7350001 -1.7949782e+38
0.023985524 0.33098432 1.7400001 -1.7816338e+38
0.028887752 0.33250397 1.748 -1.7816338e+38
0.033795204 0.33364278 1.7540001 -1.7816338e+38
0.038647406 0.33402032 1.756 -1.781634e+38
0.043436192 0.33382687 1.7550001 -1.7682896e+38
0.048191845 0.33344275 1.7530001 -1.7816338e+38
0.05287591 0.33267784 1.7490001 -1.7816338e+38
0.057603814 0.33229306 1.7470001 -1.7816338e+38
0.062391978 0.33228827 1.7470001 -1.7949782e+38
0.067141473 0.33209288 1.7460001 -1.7949782e+38
0.071761683 0.33132663 1.7420001 -1.8083226e+38
0.076403648 0.33075011 1.7390001 -1.7816338e+38
0.081075609 0.33036351 1.7370001 -1.7816338e+38
0.085983396 0.33092752 1.7400001 -1.8216671e+38
0.090750873 0.33092055 1.7400001 -1.7816338e+38
0.095572919 0.33110338 1.7410001 -1.7816338e+38
0.10034251 0.3310957 1.7410001 -1.7949782e+38
0.10499102 0.33070728 1.7390001 -1.7816338e+38
0.10962822 0.3303186 1.7370001 -1.7682894e+38
0.1143858 0.33030984 1.7370001 -1.8216671e+38
0.11928019 0.33068109 1.7390001 -1.8083226e+38
0.12439914 0.33162242 1.7440001 -1.7817381e+38
0.12947099 0.33237317 1.748 -1.7817381e+38
0.13448754 0.33293346 1.751 -1.7817381e+38
0.13928141 0.33292291 1.751 -1.7817381e+38
0.14415713 0.3331022 1.7520001 -1.7949782e+38
0.14903787 0.3332811 1.7530001 -1.7949782e+38
0.15392362 0.33345971 1.7540001 -1.8083226e+38
0.15872385 0.33344781 1.7540001 -1.7949782e+38
0.1632439 0.33286536 1.751 -1.7950298e+38
0.16793895 0.33266279 1.7500001 -1.8084784e+38
0.17302282 0.3332203 1.7530001 -1.8484074e+38
0.17883262 0.33510798 1.7630001 -1.8750962e+38
0.18427987 0.3362349 1.7690001 -1.835063e+38
0.18943869 0.33679122 1.7720001 -1.8083742e+38
0.19428441 0.33677706 1.7720001 -1.8217186e+38
0.19946671 0.33733281 1.7750001 -1.8083742e+38
0.20466478 0.33788812 1.7780001 -1.8217186e+38
0.20987867 0.33844319 1.7810001 -1.8217186e+38
0.21510834 0.33899784 1.784 -1.8083742e+38
0.22035377 0.33955219 1.7870001 -1.8083742e+38
0.22511083 0.33934626 1.7860001 -1.8217186e+38
0.22999054 0.33933002 1.7860001 -1.8083742e+38
0.23473811 0.33912355 1.7850001 -1.835063e+38
0.24015075 0.33986667 1.789 -1.8083742e+38
0.24572153 0.34079951 1.794 -1.8217186e+38
0.25145867 0.34192193 1.8000001 -1.8484074e+38
0.25722787 0.34304401 1.8060001 -1.8217186e+38
0.26201305 0.34283614 1.8050001 -1.8083742e+38
0.26738364 0.34338784 1.8080001 -1.8083226e+38
0.27231801 0.34336945 1.8080001 -1.8083226e+38
0.27740505 0.34354082 1.8090001 -1.7816338e+38
0.28202859 0.34314215 1.807 -1.7684452e+38
0.28743458 0.34369287 1.8100001 -1.8084784e+38
0.29366383 0.34519267 1.8180001 -1.8351672e+38
0.30059305 0.34745157 1.83 -1.8351672e+38
0.30641806 0.34838098 1.835 -1.8084784e+38
0.31193027 0.34893051 1.8380001 -1.8083742e+38
0.31711319 0.34910014 1.8390001 -1.7816854e+38
0.32352695 0.35059831 1.8470001 -1.8083742e+38
0.33282977 0.35513303 1.8710001 -1.8617518e+38
0.34352699 0.36099565 1.9020001 -1.8617518e+38
0.35127559 0.36363113 1.9160001 -1.7816854e+38
0.35705307 0.3641786 1.9190001 -1.7816338e+38
0.36265731 0.36453605 1.9210001 -1.7816338e+38
0.36827168 0.36489341 1.9230001 -1.7816338e+38
0.37350777 0.36487108 1.9230001 -1.7950298e+38
0.37894002 0.36503837 1.9240001 -1.8484074e+38
0.38477626 0.36558497 1.927 -1.8617518e+38
0.39164016 0.36707994 1.9350001 -1.835167e+38
0.39998263 0.36990246 1.95 -1.8352713e+38
-0.11308329 0.33664277 1.7960001 -1.715224e+38
-0.10744063 0.33440197 1.784 -1.9153377e+38
-0.1022083 0.33328548 1.7780001 -1.8885962e+38
-0.097117975 0.3325434 1.774 -1.9018361e+38
-0.092049249 0.331801 1.7700001 -1.9552137e+38
-0.086805083 0.33030829 1.7620001 -1.9819026e+38
-0.08141835 0.32806534 1.7500001 -1.9819026e+38
-0.076228477 0.32638431 1.7410001 -1.9018363e+38
-0.071333922 0.32582769 1.738 -1.875096e+38
-0.06645558 0.32527071 1.7350001 -1.8749917e+38
-0.06173569 0.32546327 1.7360001 -1.8749917e+38
-0.056944463 0.32528043 1.7350001 -1.8484074e+38
-0.052248772 0.32565975 1.7370001 -1.8484074e+38
-0.047432575 0.32528871 1.7350001 -1.8617518e+38
-0.042676374 0.32529232 1.7350001 -1.835063e+38
-0.037854455 0.32473302 1.7320001 -1.795134e+38
-0.033106197 0.32473582 1.7320001 -1.8218228e+38
-0.028325081 0.32436332 1.7300001 -1.8084784e+38
-0.023582093 0.32436535 1.7300001 -1.795134e+38
-0.018828133 0.32417956 1.7290001 -1.795134e+38
-0.014071442 0.32380587 1.7270001 -1.795134e+38
-0.0093310755 0.32361931 1.7260001 -1.7684452e+38
-0.0046014898 0.32380739 1.7270001 -1.795134e+38
0.00013382823 0.32455751 1.7310001 -1.7817896e+38
0.0048882607 0.32511982 1.7340001 -1.7817381e+38
0.0096480036 0.32530674 1.7350001 -1.7816338e+38
0.014413198 0.32549325 1.7360001 -1.7949782e+38
0.019183828 0.32567945 1.7370001 -1.7949782e+38
0.024028797 0.32680267 1.743 -1.7949782e+38
0.028890055 0.32773802 1.748 -1.8083226e+38
0.033817172 0.32904798 1.7550001 -1.7816338e+38
0.038672499 0.32942012 1.7570001 -1.781634e+38
0.0434644 0.32922935 1.756 -1.781634e+38
0.048195682 0.32866329 1.7530001 -1.7682896e+38
0.052940581 0.32828426 1.751 -1.7949784e+38
0.057674333 0.32790494 1.7490001 -1.7816338e+38
0.062468357 0.3279002 1.7490001 -1.7816338e+38
0.067185253 0.32752013 1.7470001 -1.7816338e+38
0.07189095 0.32713971 1.7450001 -1.7949782e+38
0.076541498 0.32657143 1.7420001 -1.7816338e+38
0.081268705 0.32637778 1.7410001 -1.7949782e+38
0.086138405 0.32674611 1.743 -1.7816338e+38
0.090966627 0.32692668 1.7440001 -1.7949782e+38
0.095800012 0.32710683 1.7450001 -1.8083226e+38
0.10058092 0.32709917 1.7450001 -1.7949782e+38
0.10518034 0.32652882 1.7420001 -1.7949782e+38
0.1098261 0.32614562 1.7400001 -1.7949782e+38
0.11446053 0.32576203 1.738 -1.8083226e+38
0.11942661 0.32631531 1.7410001 -1.7949782e+38
0.12440873 0.32686824 1.7440001 -1.7550493e+38
0.12955503 0.32779559 1.7490001 -1.7683937e+38
0.13442104 0.32797292 1.7500001 -1.7683937e+38
0.1393716 0.32833728 1.7520001 -1.7817381e+38
0.14416812 0.32832652 1.7520001 -1.7817381e+38
0.14913423 0.32869017 1.7540001 -1.7683937e+38
0.15402302 0.32886609 1.7550001 -1.7816338e+38
0.15882632 0.32885432 1.7550001 -1.7949782e+38
0.1633494 0.32828009 1.7520001 -1.7817896e+38
0.16814348 0.32826772 1.7520001 -1.795134e+38
0.17323314 0.3288171 1.7550001 -1.8617518e+38
0.17904881 0.3306776 1.7650001 -1.8750962e+38
0.18429352 0.33141354 1.7690001 -1.8484074e+38
0.18934573 0.33177447 1.771 -1.835063e+38
0.19418903 0.33176041 1.771 -1.8217186e+38
0.19936888 0.33230805 1.774 -1.8217186e+38
0.20456454 0.33285534 1.7770001 -1.835063e+38
0.20977598 0.33340228 1.7800001 -1.8217186e+38
0.21512383 0.33413625 1.784 -1.7950298e+38
0.22036956 0.33468249 1.7870001 -1.8083742e+38
0.22512691 0.33447939 1.7860001 -1.8083742e+38
0.23000686 0.33446324 1.7860001 -1.8217186e+38
0.23475465 0.3342596 1.7850001 -1.8083742e+38
0.2401676 0.33499196 1.789 -1.835063e+38
0.24587566 0.33609855 1.7950001 -1.8484074e+38
0.25161582 0.33720469 1.8010001 -1.835063e+38
0.2572456 0.33812335 1.8060001 -1.8217186e+38
0.26217616 0.33810553 1.8060001 -1.8217186e+38
0.26754975 0.33864915 1.8090001 -1.7949782e+38
0.27248707 0.33863088 1.8090001 -1.7949782e+38
0.27742368 0.33861238 1.8090001 -1.8083226e+38
0.28204739 0.33821934 1.807 -1.7950298e+38
0.28761247 0.33894914 1.8110001 -1.8083742e+38
0.29384473 0.34042725 1.8190001 -1.8750962e+38
0.30044842 0.34227929 1.8290001 -1.8617518e+38
0.30627096 0.34319523 1.8340001 -1.8217186e+38
0.31212011 0.34411097 1.8390001 -1.8083742e+38
0.31747833 0.34446505 1.8410001 -1.8217186e+38
0.32424814 0.34631568 1.8510001 -1.8217186e+38
0.33356231 0.35078517 1.8750001 -1.8484074e+38
0.34445152 0.35675052 1.9070001 -1.8484074e+38
0.35184741 0.3589738 1.9190001 -1.8083226e+38
0.35763314 0.35951313 1.9220001 -1.8082184e+38
0.36305693 0.35967824 1.9230001 -1.7816338e+38
0.36829391 0.35965618 1.9230001 -1.7949782e+38
0.37391856 0.360008 1.9250001 -1.8215624e+38
0.37935635 0.36017266 1.9260001 -1.8217186e+38
0.38539791 0.36089823 1.9300001 -1.835063e+38
0.3916629 0.36181054 1.9350001 -1.8218226e+38
0.39980057 0.36440542 1.9490001 -1.8219269e+38
-0.11886612 0.33413801 1.8090001 nan
-0.11277717 0.33082214 1.7910001 -1.7818423e+38
-0.10720804 0.32879871 1.7800001 -1.9553709e+38
-0.10198627 0.32769847 1.774 -1.9419736e+38
-0.096961275 0.32715195 1.771 -1.9285249e+38
-0.092004418 0.32678983 1.7690001 -1.9018361e+38
-0.086713314 0.32513416 1.7600001 -1.9418693e+38
-0.081285134 0.32273915 1.7470001 -1.9685583e+38
-0.076146871 0.32126731 1.7390001 -1.9018363e+38
-0.071257435 0.32071885 1.7360001 -1.875096e+38
-0.066422485 0.32035473 1.7340001 -1.8883361e+38
-0.061669417 0.32035977 1.7340001 -1.8882844e+38
-0.056883305 0.32017964 1.733 -1.8217186e+38
-0.052192729 0.32055345 1.7350001 -1.8217186e+38
-0.047408979 0.32037261 1.7340001 -1.835063e+38
-0.042655148 0.32037616 1.7340001 -1.835063e+38
-0.037857447 0.3200098 1.7320001 -1.835063e+38
-0.033108823 0.3200126 1.7320001 -1.8217186e+38
-0.028343698 0.31983024 1.7310001 -1.8084784e+38
-0.023570329 0.31946278 1.7290001 -1.795134e+38
-0.018829625 0.31946445 1.7290001 -1.795134e+38
-0.01407256 0.31909621 1.7270001 -1.795134e+38
-0.0093426295 0.31928191 1.728 -1.795134e+38
-0.0046098488 0.31965202 1.7300001 -1.795134e+38
0.00013414814 0.32057604 1.7350001 -1.795134e+38
0.0048971064 0.32094535 1.7370001 -1.7949782e+38
0.009654332 0.32076001 1.7360001 -1.8083226e+38
0.014422646 0.32094383 1.7370001 -1.7816338e+38
0.019196393 0.32112727 1.738 -1.8083226e+38
0.024016915 0.3218646 1.7420001 -1.8216671e+38
0.028892346 0.32297114 1.748 -1.7949782e+38
0.033819851 0.32426205 1.7550001 -1.7816338e+38
0.038719583 0.32499823 1.7590001 -1.781634e+38
0.043517347 0.32481027 1.7580001 -1.781634e+38
0.048281971 0.32443708 1.756 -1.781634e+38
0.052974995 0.32369408 1.7520001 -1.781634e+38
0.057777815 0.32368976 1.7520001 -1.7816338e+38
0.062544711 0.32350028 1.751 -1.7949782e+38
0.067228988 0.32294095 1.748 -1.8083226e+38
0.07189659 0.32238126 1.7450001 -1.8083226e+38
0.076635376 0.3221907 1.7440001 -1.7949782e+38
0.081368424 0.32199982 1.743 -1.7816338e+38
0.08624398 0.32236275 1.7450001 -1.8083226e+38
0.091078043 0.32254064 1.7460001 -1.7949782e+38
0.095917262 0.32271808 1.7470001 -1.7816338e+38
0.10064636 0.32252574 1.7460001 -1.8083226e+38
0.10530926 0.32214838 1.7440001 -1.7949782e+38
0.1098977 0.32158595 1.7410001 -1.8083226e+38
0.11460108 0.32139263 1.7400001 -1.8083226e+38
0.1195044 0.32175308 1.7420001 -1.7816338e+38
0.12448961 0.32229784 1.7450001 -1.8083226e+38
0.12956491 0.32302696 1.7490001 -1.7949782e+38
0.13443127 0.3232016 1.7500001 -1.8083226e+38
0.13946176 0.32374528 1.7530001 -1.8083226e+38
0.14426133 0.32373458 1.7530001 -1.7949782e+38
0.14923052 0.32409289 1.7550001 -1.8083226e+38
0.15412237 0.32426614 1.756 -1.7816338e+38
0.15883821 0.32406977 1.7550001 -1.7949782e+38
0.16336159 0.32350382 1.7520001 -1.7684452e+38
0.16805999 0.32330689 1.751 -1.8083742e+38
0.17324597 0.32403281 1.7550001 -1.8617518e+38
0.17896055 0.32568154 1.7640001 -1.8750962e+38
0.18430707 0.32659131 1.7690001 -1.835063e+38
0.18935959 0.32694688 1.771 -1.8217186e+38
0.1944225 0.32730219 1.7730001 -1.8083742e+38
0.19960815 0.3278417 1.7760001 -1.8083742e+38
0.20480956 0.32838088 1.779 -1.7950298e+38
0.20990892 0.32873517 1.7810001 -1.7950298e+38
0.21501863 0.32908916 1.7830001 -1.8083742e+38
0.22013859 0.3294428 1.7850001 -1.8083742e+38
0.22514282 0.32961166 1.7860001 -1.8217186e+38
0.23015185 0.32978019 1.7870001 -1.7950298e+38
0.23503414 0.32976389 1.7870001 -1.8083742e+38
0.24031858 0.33030096 1.7900001 -1.8217186e+38
0.24589267 0.33120671 1.7950001 -1.835063e+38
0.25177282 0.33248118 1.802 -1.8218228e+38
0.25712076 0.33301729 1.8050001 -1.7817896e+38
0.2623392 0.3333686 1.807 -1.8216671e+38
0.26756781 0.33371964 1.8090001 -1.7816338e+38
0.27265599 0.33388597 1.8100001 -1.7816338e+38
0.27744222 0.33368316 1.8090001 -1.7949782e+38
0.28237832 0.3336646 1.8090001 -1.7816854e+38
0.28794906 0.33438358 1.8130001 -1.8083742e+38
0.29418704 0.33583999 1.8210001 -1.8750962e+38
0.30063221 0.33748043 1.83 -1.8351672e+38
0.30662474 0.33856735 1.8360001 -1.795134e+38
0.31230977 0.33928511 1.84 -1.8217186e+38
0.31784341 0.33981827 1.8430001 -1.8083742e+38
0.32461894 0.34164181 1.853 -1.8083742e+38
0.33447275 0.3465991 1.8800001 -1.8750962e+38
0.34519544 0.35229298 1.9110001 -1.8482516e+38
0.35260248 0.35448366 1.9230001 -1.794874e+38
0.35839936 0.35501498 1.9260001 -1.8082184e+38
0.36364537 0.3549931 1.9260001 -1.8215628e+38
0.36869901 0.35478678 1.9250001 -1.8082184e+38
0.37432927 0.35513332 1.927 -1.8215624e+38
0.37996963 0.35547966 1.9290001 -1.8615956e+38
0.38641891 0.35656294 1.9350001 -1.8482512e+38
0.39290005 0.35764596 1.9410001 -1.8617516e+38
0.40125939 0.36038697 1.9560001 -1.8485114e+38
0.41260976 0.36570692 1.9850001 -1.7152244e+38
-0.11867808 0.32865867 1.8060001 -1.7418097e+38
-0.11284877 0.32611969 1.7920001 -2.035386e+38
-0.10727651 0.32412621 1.7810001 -1.9420265e+38
-0.10193662 0.32267827 1.7730001 -1.9019406e+38
-0.096859246 0.32195789 1.7690001 -1.9018361e+38
-0.091803476 0.32123718 1.7650001 -1.9418693e+38
-0.086522944 0.31960601 1.756 -2.0085914e+38
-0.081198379 0.31761038 1.7450001 -1.8884919e+38
-0.076152794 0.31652436 1.7390001 -1.8484587e+38
-0.071262971 0.31598401 1.7360001 -1.8617516e+38
-0.06642767 0.31562528 1.7340001 -1.8617518e+38
-0.061638664 0.31544825 1.733 -1.835063e+38
-0.05685493 0.31527087 1.7320001 -1.835063e+38
-0.052166726 0.31563914 1.7340001 -1.8217186e+38
-0.04738535 0.31546101 1.733 -1.8217186e+38
-0.042633891 0.31546456 1.733 -1.835063e+38
-0.03783856 0.31510359 1.7310001 -1.8083742e+38
-0.033092301 0.31510633 1.7310001 -1.8217186e+38
-0.028345928 0.31510878 1.7310001 -1.795134e+38
-0.023585819 0.31492877 1.7300001 -1.7950298e+38
-0.018841999 0.31493041 1.7300001 -1.7817896e+38
-0.014089964 0.31474969 1.7290001 -1.7817896e+38
-0.0093541788 0.31493264 1.7300001 -1.7817896e+38
-0.0046182061 0.31547931 1.733 -1.7684452e+38
0.00013423603 0.31602561 1.7360001 -1.7817896e+38
0.0049031312 0.31657156 1.7390001 -1.7949782e+38
0.0096717756 0.31657097 1.7390001 -1.7949782e+38
0.014448692 0.31675208 1.7400001 -1.7816338e+38
0.01923104 0.31693277 1.7410001 -1.7816338e+38
0.02404638 0.31747723 1.7440001 -1.7816338e+38
0.028927678 0.31856737 1.7500001 -1.7949782e+38
0.033880327 0.32002124 1.7580001 -1.7816338e+38
0.038788661 0.32074651 1.7620001 -1.7682896e+38
0.04359502 0.32056126 1.761 -1.7682896e+38
0.048340749 0.32001159 1.7580001 -1.7549452e+38
0.05306986 0.31946152 1.7550001 -1.781634e+38
0.057848286 0.31927517 1.7540001 -1.7816338e+38
0.062549591 0.31872442 1.751 -1.7816338e+38
0.067195773 0.31799132 1.7470001 -1.8083226e+38
0.071902186 0.31762189 1.7450001 -1.8083226e+38
0.07668528 0.31761611 1.7450001 -1.7949782e+38
0.081468105 0.31761 1.7450001 -1.7816338e+38
0.086250655 0.31760353 1.7450001 -1.7949782e+38
0.091085076 0.31777868 1.7460001 -1.7816338e+38
0.095924661 0.3179535 1.7470001 -1.8083226e+38
0.10071176 0.31794596 1.7470001 -1.7816338e+38
0.10531734 0.31739211 1.7440001 -1.7949782e+38
0.1100955 0.31738389 1.7440001 -1.7949782e+38
0.11467569 0.31682935 1.7410001 -1.8216671e+38
0.11965071 0.31736636 1.7440001 -1.8083226e+38
0.12457042 0.3177211 1.7460001 -1.8083226e+38
0.12972289 0.31862128 1.751 -1.7816338e+38
0.13451825 0.31861132 1.751 -1.7949782e+38
0.13955182 0.31914693 1.7540001 -1.7816338e+38
0.14418985 0.31877238 1.7520001 -1.7949782e+38
0.14924169 0.31930727 1.7550001 -1.7949782e+38
0.1540461 0.31929597 1.7550001 -1.8083226e+38
0.15885003 0.31928435 1.7550001 -1.7949782e+38
0.16337369 0.31872669 1.7520001 -1.7684452e+38
0.16826439 0.31889641 1.7530001 -1.8083742e+38
0.17345615 0.31961149 1.7570001 -1.8750962e+38
0.17927803 0.32141763 1.7670001 -1.8484074e+38
0.1844247 0.32195011 1.7700001 -1.8217186e+38
0.18948029 0.32230034 1.7720001 -1.8083742e+38
0.19465588 0.32283211 1.7750001 -1.835063e+38
0.1998473 0.32336354 1.7780001 -1.8217186e+38
0.20493937 0.32371277 1.7800001 -1.8217186e+38
0.21004176 0.32406172 1.7820001 -1.8217186e+38
0.21503389 0.32422853 1.7830001 -1.7950298e+38
0.22027747 0.32475868 1.7860001 -1.7950298e+38
0.22528471 0.32492489 1.7870001 -1.8083742e+38
0.23029672 0.32509077 1.7880001 -1.8217186e+38
0.23518203 0.32507467 1.7880001 -1.8217186e+38
0.2403352 0.32542181 1.7900001 -1.8083742e+38
0.24590957 0.32631406 1.7950001 -1.8217186e+38
0.25165033 0.32738781 1.8010001 -1.795134e+38
0.25713822 0.32809764 1.8050001 -1.7817896e+38
0.2625021 0.32862538 1.8080001 -1.8083226e+38
0.26773369 0.32897109 1.8100001 -1.7949782e+38
0.2729755 0.32931659 1.812 -1.7949782e+38
0.27761397 0.32893485 1.8100001 -1.8083226e+38
0.28255302 0.32891643 1.8100001 -1.7950298e+38
0.28812671 0.32962462 1.8140001 -1.7817896e+38
0.29436773 0.3310594 1.8220001 -1.8485116e+38
0.30081591 0.33267543 1.8310001 -1.8485116e+38
0.3069784 0.33392775 1.8380001 -1.7817896e+38
0.31249937 0.33445308 1.8410001 -1.8217186e+38
0.31803593 0.33497819 1.8440001 -1.7950298e+38
0.3248145 0.33677462 1.8540001 -1.7950298e+38
0.33484933 0.34184006 1.8820001 -1.8483559e+38
0.34593931 0.34781289 1.9150001 -1.8349072e+38
0.35335749 0.34997097 1.927 -1.8082184e+38
0.35916543 0.35049418 1.9300001 -1.794874e+38
0.36423364 0.35029083 1.9290001 -1.794874e+38
0.3694872 0.35026899 1.9290001 -1.8082184e+38
0.3749342 0.35042852 1.9300001 -1.8349072e+38
0.38097683 0.35113266 1.9340001 -1.8349068e+38
0.38704044 0.35183656 1.9380001 -1.8615956e+38
0.39352989 0.35290334 1.9440001 -1.8484072e+38
0.40169254 0.35542211 1.9580001 -1.8885446e+38
0.41242507 0.36011863 1.9840001 -1.8486159e+38
-0.11901566 0.32462868 1.8110001 -2.9027217e+38
-0.11304629 0.32176939 1.7950001 -1.7150694e+38
-0.10752563 0.31998512 1.7850001 -1.9819042e+38
-0.10211691 0.3183797 1.7760001 -1.9285781e+38
-0.096921422 0.31731164 1.7700001 -1.9151292e+38
-0.091706477 0.31606391 1.7630001 -1.9418695e+38
-0.086381756 0.31427795 1.7530001 -1.9418693e+38
-0.08111155 0.31249151 1.743 -1.928369e+38
-0.076158665 0.31178042 1.7390001 -1.8617516e+38
-0.071309537 0.31142753 1.7370001 -1.8484074e+38
-0.066471122 0.31107423 1.7350001 -1.8484074e+38
-0.061679017 0.31089988 1.7340001 -1.835063e+38
-0.056892164 0.31072512 1.733 -1.835063e+38
-0.052140687 0.31072932 1.733 -1.8484074e+38
-0.047443725 0.31109181 1.7350001 -1.8484074e+38
-0.042686414 0.31109533 1.7350001 -1.8217186e+38
-0.037863366 0.31056049 1.7320001 -1.8083742e+38
-0.033075765 0.31020463 1.7300001 -1.8217186e+38
-0.028348137 0.31038633 1.7310001 -1.835063e+38
-0.02360129 0.31038833 1.7310001 -1.8217186e+38
-0.018865254 0.31056932 1.7320001 -1.8083742e+38
-0.014115514 0.3105706 1.7320001 -1.8084784e+38
-0.0093711317 0.31075078 1.733 -1.8217186e+38
-0.0046238969 0.31110999 1.7350001 -1.7817896e+38
0.00013432384 0.31146881 1.7370001 -1.7684452e+38
0.004906334 0.31200656 1.7400001 -1.8083226e+38
0.0096836556 0.31218529 1.7410001 -1.8083226e+38
0.01446643 0.31236365 1.7420001 -1.7816338e+38
0.019243591 0.31236237 1.7420001 -1.7816338e+38
0.024048256 0.31271926 1.7440001 -1.8348555e+38
0.028946463 0.31397238 1.751 -1.8481999e+38
0.033940785 0.31576306 1.761 -1.7948223e+38
0.038879748 0.31665677 1.766 -1.7814779e+38
0.043697447 0.31647429 1.7650001 -1.7948223e+38
0.048454508 0.31593281 1.7620001 -1.8081667e+38
0.053164702 0.31521165 1.7580001 -1.8215111e+38
0.057918742 0.31484875 1.756 -1.7816338e+38
0.062554434 0.31394762 1.751 -1.8083226e+38
0.067239419 0.31340474 1.748 -1.8216671e+38
0.071948938 0.31304079 1.7460001 -1.8083226e+38
0.076735139 0.3130351 1.7460001 -1.7949782e+38
0.081474386 0.31284976 1.7450001 -1.7949782e+38
0.086306714 0.31302261 1.7460001 -1.7949782e+38
0.091092058 0.31301585 1.7460001 -1.7949782e+38
0.09598691 0.31336722 1.748 -1.7816338e+38
0.10071944 0.31318048 1.7470001 -1.7816338e+38
0.10538576 0.31281415 1.7450001 -1.8083226e+38
0.11004073 0.31244743 1.743 -1.7949782e+38
0.11475026 0.3122597 1.7420001 -1.8216671e+38
0.11972836 0.31278861 1.7450001 -1.7949782e+38
0.1247225 0.31331712 1.748 -1.8083226e+38
0.12988085 0.3142038 1.7530001 -1.7949782e+38
0.13475882 0.31437317 1.7540001 -1.7949782e+38
0.13956225 0.31436297 1.7540001 -1.7949782e+38
0.14436521 0.31435236 1.7540001 -1.7816338e+38
0.14925276 0.31452072 1.7550001 -1.7816338e+38
0.15414529 0.31468871 1.756 -1.7816338e+38
0.15877123 0.31431881 1.7540001 -1.795134e+38
0.16338572 0.3139486 1.7520001 -1.7950298e+38
0.16837269 0.31429487 1.7540001 -1.835063e+38
0.17366625 0.31517833 1.7590001 -1.8484074e+38
0.17939253 0.31677812 1.7680001 -1.8484074e+38
0.18464644 0.31748167 1.7720001 -1.8217186e+38
0.1897078 0.31782651 1.774 -1.835063e+38
0.19488919 0.31835023 1.7770001 -1.8217186e+38
0.20019881 0.31905276 1.7810001 -1.7950298e+38
0.20518422 0.31921747 1.7820001 -1.8083742e+38
0.21041027 0.31974018 1.7850001 -1.8217186e+38
0.21529025 0.31972525 1.7850001 -1.8217186e+38
0.22041625 0.32006818 1.7870001 -1.8083742e+38
0.22517435 0.3198736 1.7860001 -1.7950298e+38
0.23044153 0.32039508 1.789 -1.7684452e+38
0.23532978 0.32037902 1.789 -1.795134e+38
0.24062023 0.32089993 1.7920001 -1.795134e+38
0.24592637 0.32142058 1.7950001 -1.8084784e+38
0.25180715 0.32265714 1.802 -1.8084784e+38
0.2571556 0.32317713 1.8050001 -1.7817896e+38
0.26251969 0.32369685 1.8080001 -1.8216671e+38
0.26760364 0.32385823 1.8090001 -1.7949782e+38
0.27284294 0.3241984 1.8110001 -1.7949782e+38
0.27747887 0.32382226 1.8090001 -1.8083226e+38
0.28241539 0.32380396 1.8090001 -1.8217186e+38
0.28782773 0.32432243 1.812 -1.8217186e+38
0.29438668 0.32609349 1.8220001 -1.8884406e+38
0.30099949 0.32786414 1.8320001 -1.901785e+38
0.30699793 0.32891855 1.8380001 -1.8484074e+38
0.31268886 0.32961479 1.8420001 -1.8083742e+38
0.31822833 0.33013183 1.845 -1.7950298e+38
0.32500988 0.33190113 1.8550001 -1.8083742e+38
0.33504793 0.33689043 1.8830001 -1.8617003e+38
0.34614116 0.3427735 1.9160001 -1.8216671e+38
0.35392913 0.34525675 1.9300001 -1.8082184e+38
0.3595593 0.34559304 1.932 -1.794874e+38
0.36482188 0.34557143 1.932 -1.794874e+38
0.37027523 0.34572852 1.9330001 -1.8082184e+38
0.37553903 0.34570664 1.9330001 -1.8083226e+38
0.38119596 0.34604228 1.9350001 -1.8349068e+38
0.38746211 0.34691426 1.9400001 -1.835063e+38
0.39415973 0.34814367 1.9470001 -1.8617516e+38
0.40192041 0.35026681 1.9590001 -1.8618558e+38
0.41161656 0.35399863 1.9800001 -1.9286823e+38
-0.11393657 0.3193436 1.8090001 nan
-0.10819642 0.31705698 1.7960001 -2.9826833e+38
-0.10287217 0.31582919 1.789 -1.7015157e+38
-0.097640686 0.31477752 1.7830001 -1.9284738e+38
-0.092181645 0.31284267 1.7720001 -2.00854e+38
-0.086536177 0.31002465 1.756 -2.0217798e+38
-0.081164278 0.30791235 1.7440001 -1.9150245e+38
-0.076120682 0.30685902 1.738 -1.8749917e+38
-0.071232885 0.30633497 1.7350001 -1.87494e+38
-0.0664379 0.30616364 1.7340001 -1.9016288e+38
-0.061648168 0.30599195 1.733 -1.8484074e+38
-0.056896534 0.30599648 1.733 -1.835063e+38
-0.052174795 0.30617726 1.7340001 -1.835063e+38
-0.047474727 0.30653423 1.7360001 -1.835063e+38
-0.042738918 0.30671424 1.7370001 -1.8217186e+38
-0.037931882 0.30636421 1.7350001 -1.835063e+38
-0.033154804 0.30619034 1.7340001 -1.8217186e+38
-0.028366707 0.30583954 1.7320001 -1.8217186e+38
-0.023630388 0.30601811 1.733 -1.835063e+38
-0.018877605 0.30601975 1.733 -1.8217186e+38
-0.014132909 0.30619761 1.7340001 -1.8083742e+38
-0.0093772663 0.30619854 1.7340001 -1.8083742e+38
-0.0046269209 0.30655226 1.7360001 -1.8217186e+38
0.00013441157 0.30690554 1.738 -1.7817896e+38
0.0049095335 0.30743513 1.7410001 -1.8083226e+38
0.0097010937 0.30796432 1.7440001 -1.8083226e+38
0.014509075 0.30849317 1.7470001 -1.7816338e+38
0.01928927 0.30831528 1.7460001 -1.7816338e+38
0.024105277 0.30866677 1.748 -1.8215628e+38
0.028998299 0.30972421 1.7540001 -1.8215111e+38
0.034020506 0.31166419 1.7650001 -1.7814779e+38
0.038948797 0.31236768 1.7690001 -1.7814779e+38
0.043799855 0.31236452 1.7690001 -1.7948223e+38
0.048513241 0.31147808 1.7640001 -1.7948223e+38
0.053259525 0.31094447 1.761 -1.8081667e+38
0.05792319 0.31005734 1.756 -1.7682894e+38
0.062594965 0.30934647 1.7520001 -1.7949782e+38
0.067321517 0.30898839 1.7500001 -1.7949782e+38
0.072036862 0.3086299 1.748 -1.8216671e+38
0.076916821 0.3089774 1.7500001 -1.7816338e+38
0.081620678 0.30861825 1.748 -1.7949782e+38
0.086412154 0.30861184 1.748 -1.7816338e+38
0.091203324 0.3086051 1.748 -1.7949782e+38
0.095939279 0.30842152 1.7470001 -1.7816338e+38
0.10078472 0.30859062 1.748 -1.7949782e+38
0.10533331 0.30787674 1.7440001 -1.7949782e+38
0.1101753 0.30804518 1.7450001 -1.7949782e+38
0.11489064 0.30786023 1.7440001 -1.8083226e+38
0.11994319 0.30855751 1.748 -1.7949782e+38
0.12494589 0.30907792 1.751 -1.7816338e+38
0.12996462 0.30959803 1.7540001 -1.7949782e+38
0.13484567 0.30976471 1.7550001 -1.7949782e+38
0.13973173 0.30993104 1.756 -1.7949782e+38
0.1445405 0.30992058 1.756 -1.7949782e+38
0.1493488 0.30990979 1.756 -1.7949782e+38
0.1541566 0.30989867 1.756 -1.8083226e+38
0.15869233 0.30935785 1.7530001 -1.7817896e+38
0.16330434 0.30899319 1.751 -1.8217186e+38
0.16828892 0.3093341 1.7530001 -1.8217186e+38
0.17367883 0.31038052 1.7590001 -1.8617518e+38
0.17940545 0.31195587 1.7680001 -1.8617518e+38
0.18455547 0.31247213 1.771 -1.8217186e+38
0.18972136 0.3129881 1.774 -1.8217186e+38
0.19479339 0.31332731 1.7760001 -1.7950298e+38
0.20010057 0.31401902 1.7800001 -1.8349068e+38
0.20531385 0.31453401 1.7830001 -1.8083742e+38
0.21054292 0.31504866 1.7860001 -1.8083742e+38
0.21542591 0.31503379 1.7860001 -1.8217186e+38
0.22030824 0.31501868 1.7860001 -1.8217186e+38
0.22506383 0.31482691 1.7850001 -1.795134e+38
0.23032854 0.31534034 1.7880001 -1.8084784e+38
0.23534589 0.3155008 1.789 -1.795134e+38
0.24077091 0.31619003 1.7930001 -1.8084784e+38
0.24594302 0.31652626 1.7950001 -1.8218228e+38
0.25182408 0.31774384 1.802 -1.7817896e+38
0.25703031 0.31807947 1.8040001 -1.7817896e+38
0.26239195 0.31859118 1.807 -1.8083226e+38
0.26747337 0.31874999 1.8080001 -1.8083226e+38
0.27286083 0.3192611 1.8110001 -1.7816338e+38
0.27765036 0.31906688 1.8100001 -1.7949782e+38
0.28258982 0.31904873 1.8100001 -1.8217186e+38
0.28784627 0.31938288 1.812 -1.8217186e+38
0.29424396 0.32095057 1.8210001 -1.8884406e+38
0.30069 0.32251787 1.83 -1.8750962e+38
0.30668321 0.3235561 1.8360001 -1.835063e+38
0.3123689 0.32424161 1.84 -1.7950298e+38
0.31824809 0.32510304 1.845 -1.7950298e+38
0.32520515 0.32702145 1.8560001 -1.8083742e+38
0.33542436 0.33211079 1.8850001 -1.8483559e+38
0.34652349 0.33790401 1.9180001 -1.8350115e+38
0.35395044 0.33999693 1.9300001 -1.7682894e+38
0.35976687 0.34050405 1.9330001 -1.8082184e+38
0.36503232 0.34048259 1.9330001 -1.794874e+38
0.37087169 0.34098938 1.9360001 -1.8082184e+38
0.37614375 0.34096766 1.9360001 -1.7682894e+38
0.38200602 0.34147412 1.9390001 -1.8482512e+38
0.38808352 0.34215644 1.9430001 -1.8217186e+38
0.39438444 0.34301469 1.9480001 -1.8617516e+38
0.4013274 0.34440103 1.9560001 -1.9018891e+38
0.41039205 0.34754765 1.9740001 -1.9153379e+38
-0.11013244 0.31771785 1.8280001 nan
-0.10397252 0.31424966 1.8080001 nan
-0.098633811 0.31304055 1.8010001 -1.7015157e+38
-0.093229093 0.31148341 1.7920001 -1.7149118e+38
-0.087479115 0.30853522 1.7750001 -1.9550065e+38
-0.081822023 0.30558658 1.7580001 -1.9283176e+38
-0.076389253 0.30315894 1.7440001 -1.915025e+38
-0.071320407 0.30194771 1.7370001 -1.9016805e+38
-0.066366315 0.30108371 1.7320001 -1.8349585e+38
-0.061581712 0.30091473 1.7310001 -1.87494e+38
-0.056802373 0.3007454 1.7300001 -1.8615956e+38
-0.052118596 0.30109721 1.7320001 -1.8482512e+38
-0.047451001 0.30162251 1.7350001 -1.835063e+38
-0.042766787 0.30214748 1.738 -1.835063e+38
-0.038000371 0.30215052 1.738 -1.8217186e+38
-0.033195581 0.30180559 1.7360001 -1.8084784e+38
-0.028418018 0.30163407 1.7350001 -1.8217186e+38
-0.023659473 0.30163607 1.7350001 -1.8217186e+38
-0.018889947 0.30146381 1.7340001 -1.8217186e+38
-0.014142144 0.30163893 1.7350001 -1.8083742e+38
-0.0093888016 0.30181366 1.7360001 -1.8349068e+38
-0.0046326062 0.30216193 1.738 -1.8083742e+38
0.00013457659 0.30250984 1.7400001 -1.8083742e+38
0.0049155508 0.30303121 1.743 -1.8216671e+38
0.0097240899 0.30389991 1.748 -1.8083226e+38
0.014535108 0.30424672 1.7500001 -1.7949782e+38
0.019334944 0.30424541 1.7500001 -1.7816338e+38
0.024134709 0.30424374 1.7500001 -1.7816338e+38
0.029033588 0.30528486 1.756 -1.781634e+38
0.034061667 0.3071948 1.7670001 -1.7814779e+38
0.038995817 0.30788743 1.771 -1.7814779e+38
0.043827966 0.30771044 1.7700001 -1.7948223e+38
0.048544448 0.30683768 1.7650001 -1.7948223e+38
0.053263586 0.30613843 1.761 -1.7948223e+38
0.057960596 0.30543885 1.7570001 -1.7816338e+38
0.062563993 0.30439121 1.751 -1.7816338e+38
0.06728816 0.30403864 1.7490001 -1.8083226e+38
0.072083555 0.3040334 1.7490001 -1.7683937e+38
0.076966591 0.30437541 1.751 -1.7949782e+38
0.081766941 0.30436942 1.751 -1.8083226e+38
0.086567 0.3043631 1.751 -1.7949782e+38
0.091314562 0.30418259 1.7500001 -1.7816338e+38
0.096166171 0.30434939 1.751 -1.7949782e+38
0.10084994 0.30399439 1.7490001 -1.8083226e+38
0.1054016 0.3032915 1.7450001 -1.7949782e+38
0.11005725 0.30293587 1.743 -1.7949782e+38
0.1149651 0.30327514 1.7450001 -1.7949782e+38
0.12008934 0.30413535 1.7500001 -1.7816338e+38
0.12509789 0.30464768 1.7530001 -1.7816338e+38
0.13004833 0.30498588 1.7550001 -1.7816338e+38
0.1350093 0.30532366 1.7570001 -1.7816338e+38
0.13990118 0.30548739 1.7580001 -1.7816338e+38
0.14471573 0.30547699 1.7580001 -1.7949782e+38
0.14952981 0.30546626 1.7580001 -1.8083226e+38
0.15425561 0.30528152 1.7570001 -1.8083226e+38
0.15879436 0.30474892 1.7540001 -1.8217186e+38
0.16331613 0.30421609 1.751 -1.8217186e+38
0.16830103 0.30455166 1.7530001 -1.8484074e+38
0.17369129 0.30558181 1.7590001 -1.8617518e+38
0.17931679 0.306959 1.7670001 -1.835063e+38
0.1844644 0.30746722 1.7700001 -1.835063e+38
0.18973482 0.30814883 1.774 -1.8083742e+38
0.1950265 0.30883008 1.7780001 -1.7950298e+38
0.20022707 0.30933735 1.7810001 -1.8083742e+38
0.20555854 0.31001788 1.7850001 -1.7950298e+38
0.21055757 0.31017712 1.7860001 -1.8083742e+38
0.21532021 0.30998871 1.7850001 -1.8217186e+38
0.22007668 0.30980006 1.784 -1.8217186e+38
0.22507927 0.30995849 1.7850001 -1.795134e+38
0.23021545 0.31029025 1.7870001 -1.795134e+38
0.23549345 0.31079537 1.7900001 -1.8217186e+38
0.24092147 0.31147385 1.794 -1.8084784e+38
0.24650764 0.31232554 1.7990001 -1.8084784e+38
0.25198069 0.31300336 1.8030001 -1.7817896e+38
0.25718987 0.31333369 1.8050001 -1.795134e+38
0.2625545 0.31383732 1.8080001 -1.8083226e+38
0.26749092 0.31381997 1.8080001 -1.8083226e+38
0.27272797 0.3141495 1.8100001 -1.7949782e+38
0.27751496 0.31395814 1.8090001 -1.8083226e+38
0.282608 0.31411368 1.8100001 -1.8083742e+38
0.28786466 0.31444252 1.812 -1.8217186e+38
0.29426265 0.31598583 1.8210001 -1.8884406e+38
0.30087328 0.31770226 1.8310001 -1.901785e+38
0.30653533 0.31837726 1.835 -1.8217186e+38
0.31204876 0.31887856 1.8380001 -1.8083742e+38
0.31826776 0.32007349 1.845 -1.8217186e+38
0.32540026 0.32213554 1.8570001 -1.7950298e+38
0.3359786 0.32749292 1.8880001 -1.8617003e+38
0.34672511 0.33284944 1.9190001 -1.8216671e+38
0.354155 0.33490977 1.9310001 -1.794874e+38
0.3601605 0.33558235 1.9350001 -1.794874e+38
0.3658092 0.33590782 1.937 -1.8082184e+38
0.37146807 0.33623317 1.9390001 -1.7816338e+38
0.37694266 0.33638492 1.9400001 -1.8083226e+38
0.38261896 0.33670995 1.9420002 -1.7950298e+38
0.38870475 0.33738148 1.9460001 -1.835063e+38
0.39501405 0.33822632 1.9510001 -1.8484074e+38
0.40176013 0.33941758 1.9580001 -1.8218226e+38
0.40979099 0.34164864 1.9710001 -1.8886491e+38
-0.099955648 0.31223089 1.825 nan
-0.094432719 0.31052724 1.8150001 -2.8892724e+38
-0.088717841 0.30796769 1.8000001 -1.7015157e+38
-0.083131447 0.30557877 1.7860001 -1.7950298e+38
-0.077358693 0.3021628 1.766 -1.9549022e+38
-0.071777448 0.29908848 1.748 -1.9549539e+38
-0.066486277 0.29686937 1.7350001 -1.8882319e+38
-0.061550777 0.29601863 1.7300001 -1.8882319e+38
-0.056740984 0.29568082 1.728 -1.8615956e+38
-0.052092433 0.29619825 1.7310001 -1.8615956e+38
-0.047427241 0.29671535 1.7340001 -1.835063e+38
-0.042770028 0.29740322 1.738 -1.8217186e+38
-0.038003255 0.29740626 1.738 -1.835063e+38
-0.033236347 0.29740894 1.738 -1.795134e+38
-0.028452937 0.29724017 1.7370001 -1.8083742e+38
-0.023674907 0.29707101 1.7360001 -1.7950298e+38
-0.018891383 0.29673034 1.7340001 -1.8083742e+38
-0.014151371 0.29707387 1.7360001 -1.8349068e+38
-0.0094003333 0.29741701 1.738 -1.8349068e+38
-0.0046409559 0.2979309 1.7410001 -1.8083742e+38
0.00013466418 0.2979311 1.7410001 -1.8216671e+38
0.0049187453 0.29844427 1.7440001 -1.7816338e+38
0.0097248293 0.2991282 1.748 -1.7949782e+38
0.01456113 0.29998294 1.7530001 -1.7816338e+38
0.019380609 0.30015278 1.7540001 -1.7816338e+38
0.024205504 0.30032226 1.7550001 -1.7949782e+38
0.029101934 0.30117583 1.7600001 -1.7949782e+38
0.034102805 0.30271357 1.7690001 -1.781634e+38
0.039020792 0.30322415 1.7720001 -1.8081667e+38
0.043831285 0.3028788 1.7700001 -1.7814779e+38
0.048520617 0.30184862 1.7640001 -1.8081667e+38
0.053267613 0.30133143 1.761 -1.781634e+38
0.057931975 0.30047169 1.756 -1.7816338e+38
0.062568709 0.29961163 1.751 -1.8083226e+38
0.067254759 0.29909346 1.748 -1.7683937e+38
0.072171405 0.29960153 1.751 -1.7683937e+38
0.07706029 0.29993814 1.7530001 -1.8083226e+38
0.081913166 0.30010334 1.7540001 -1.7949782e+38
0.086622909 0.29975486 1.7520001 -1.7816338e+38
0.091425747 0.29974821 1.7520001 -1.7949782e+38
0.096173339 0.29957017 1.751 -1.7949782e+38
0.10097278 0.2995629 1.751 -1.7816338e+38
0.10546982 0.29869986 1.7460001 -1.7949782e+38
0.11025482 0.2986919 1.7460001 -1.8083226e+38
0.11517124 0.29902577 1.748 -1.8083226e+38
0.12030408 0.29987246 1.7530001 -1.8083226e+38
0.12524982 0.30020559 1.7550001 -1.7949782e+38
0.13020606 0.30053836 1.7570001 -1.8083226e+38
0.135096 0.3006998 1.7580001 -1.7816338e+38
0.1401501 0.30120289 1.761 -1.7949782e+38
0.14489089 0.30102155 1.7600001 -1.7949782e+38
0.14971076 0.30101094 1.7600001 -1.8083226e+38
0.15417892 0.30031586 1.756 -1.7949782e+38
0.15880577 0.29996264 1.7540001 -1.8083742e+38
0.16342111 0.29960912 1.7520001 -1.8083742e+38
0.16860108 0.30028132 1.756 -1.8217186e+38
0.17409863 0.3014662 1.7630001 -1.835063e+38
0.17963395 0.30265063 1.7700001 -1.835063e+38
0.18479009 0.3031508 1.7730001 -1.8484074e+38
0.18996207 0.30365062 1.7760001 -1.8217186e+38
0.19525954 0.30432105 1.7800001 -1.8083742e+38
0.20035343 0.30464923 1.7820001 -1.8217186e+38
0.20557277 0.30514804 1.7850001 -1.8083742e+38
0.2104542 0.30513373 1.7850001 -1.7950298e+38
0.215335 0.30511916 1.7850001 -1.8217186e+38
0.22009175 0.30493337 1.784 -1.8217186e+38
0.2252207 0.30526012 1.7860001 -1.8083742e+38
0.23035985 0.30558658 1.7880001 -1.8217186e+38
0.23564087 0.30608362 1.7910001 -1.835063e+38
0.24107186 0.30675128 1.7950001 -1.8217186e+38
0.24679811 0.30776042 1.8010001 -1.8217186e+38
0.25227687 0.30842742 1.8050001 -1.8083742e+38
0.25734928 0.30858156 1.8060001 -1.7816338e+38
0.26257166 0.30890632 1.8080001 -1.7949782e+38
0.2675083 0.30888906 1.8080001 -1.7816338e+38
0.27244419 0.30887166 1.8080001 -1.7817381e+38
0.27737936 0.30885401 1.8080001 -1.7817896e+38
0.28246993 0.30900705 1.8090001 -1.8083742e+38
0.28804183 0.30967221 1.8130001 -1.7950298e+38
0.29444277 0.31119108 1.8220001 -1.8750962e+38
0.30122074 0.31305116 1.8330001 -1.8750962e+38
0.30688852 0.31371546 1.8370001 -1.8617518e+38
0.31240761 0.31420869 1.84 -1.8217186e+38
0.31828722 0.31504321 1.845 -1.8083742e+38
0.32594576 0.31758493 1.8600001 -1.7816854e+38
0.33653271 0.32285786 1.891 -1.8750962e+38
0.34746858 0.32830074 1.9230001 -1.8482516e+38
0.35472625 0.33015779 1.9340001 -1.794874e+38
0.36055398 0.3306489 1.937 -1.8082184e+38
0.36601943 0.33079839 1.9380001 -1.7816338e+38
0.37206432 0.33145982 1.9420002 -1.7949782e+38
0.37754723 0.33160895 1.9430001 -1.8216671e+38
0.38323179 0.33192864 1.9450001 -1.8217186e+38
0.38872665 0.33207753 1.9460001 -1.8083742e+38
0.39503607 0.33290887 1.9510001 -1.835063e+38
0.40219274 0.3344225 1.96 -1.8351672e+38
0.41043714 0.33678889 1.9740001 -1.9152864e+38
-0.095896624 0.31028634 1.8430001 nan
-0.089858115 0.30692595 1.8230001 nan
-0.084394455 0.30524877 1.8130001 -1.7015157e+38
-0.078678675 0.30239254 1.7960001 -1.7947693e+38
-0.072768375 0.29835722 1.7720001 -2.3818187e+38
-0.066951118 0.294153 1.7470001 -2.1815997e+38
-0.061768856 0.29230562 1.7360001 -1.928056e+38
-0.05684375 0.29146814 1.7310001 -1.914816e+38
-0.052096337 0.2914722 1.7310001 -1.9015763e+38
-0.04740344 0.29181269 1.733 -1.8482512e+38
-0.042699408 0.29215282 1.7350001 -1.835063e+38
-0.03796237 0.29232422 1.7360001 -1.8217186e+38
-0.033219721 0.29249528 1.7370001 -1.835063e+38
-0.028455075 0.29249758 1.7370001 -1.8083742e+38
-0.023690326 0.29249951 1.7370001 -1.8217186e+38
-0.018903701 0.29216433 1.7350001 -1.8083226e+38
-0.01416874 0.29267076 1.738 -1.8083226e+38
-0.0094118593 0.29300845 1.7400001 -1.8083226e+38
-0.004646637 0.29351413 1.743 -1.7949782e+38
