# .PCD v0.7 - Point Cloud Data file format
VERSION 0.7
FIELDS x y z rgb
SIZE 4 4 4 4
TYPE F F F F
COUNT 1 1 1 1
WIDTH 1087
HEIGHT 1
VIEWPOINT 0 0 0 1 0 0 0
POINTS 1087
DATA ascii
0.035903715 -0.16661039 1.8590001 -2.1947857e+38
0.040945623 -0.16633977 1.8560001 -2.2081301e+38
0.045921259 -0.1658897 1.8510001 -2.2214745e+38
0.050814115 -0.16526015 1.8440001 -2.2081297e+38
0.05575921 -0.16489927 1.84 -2.1947328e+38
0.06074819 -0.16471741 1.8380001 -2.234766e+38
0.065761745 -0.16462494 1.8370001 -2.3948985e+38
0.070730969 -0.16444263 1.835 -2.4215873e+38
0.075606346 -0.1640809 1.8310001 -2.4348789e+38
0.080459431 -0.16371894 1.8270001 -2.4215345e+38
0.08538378 -0.16353598 1.825 -2.4081901e+38
0.090445392 -0.16362166 1.8260001 -2.4614116e+38
0.095564418 -0.16379672 1.8280001 -2.4482233e+38
0.10047393 -0.16361316 1.8260001 -2.4348789e+38
0.10537207 -0.16342938 1.8240001 -2.4480672e+38
0.11025878 -0.16324538 1.8220001 -2.474756e+38
0.11507081 -0.1629716 1.8190001 -2.4348789e+38
0.11973391 -0.16251844 1.8140001 -2.4482233e+38
0.12450657 -0.16224429 1.8110001 -2.4081901e+38
0.12926228 -0.16196994 1.8080001 -2.4482233e+38
0.13429797 -0.16205373 1.8090001 -2.4482233e+38
0.13933861 -0.16213731 1.8100001 -2.4082429e+38
0.14438419 -0.1622207 1.8110001 -2.3815545e+38
0.14943467 -0.16230385 1.812 -2.3282294e+38
0.15440489 -0.16229726 1.812 -2.2748521e+38
0.15928654 -0.1622009 1.8110001 -2.1547525e+38
0.16416208 -0.16210435 1.8100001 -2.0880305e+38
0.16912495 -0.16209717 1.8100001 -2.0746863e+38
0.17399104 -0.16200028 1.8090001 -2.114668e+38
0.17875199 -0.16181362 1.807 -2.1147722e+38
0.18360303 -0.16171636 1.8060001 -2.1680456e+38
0.18844788 -0.16161892 1.8050001 -2.1413568e+38
0.19339369 -0.16161084 1.8050001 -2.1413568e+38
0.198119 -0.1614235 1.8030001 -2.1280124e+38
0.20294528 -0.16132557 1.802 -2.1680456e+38
0.20764999 -0.16113795 1.8000001 -2.1413568e+38
0.21257916 -0.16112919 1.8000001 -2.1414083e+38
0.21726592 -0.16094126 1.7980001 -2.1280639e+38
0.22218809 -0.16093218 1.7980001 -2.2481633e+38
0.22710948 -0.16092296 1.7980001 -2.3548139e+38
0.23215912 -0.16100305 1.7990001 -2.3815545e+38
0.23734523 -0.16117249 1.8010001 -2.4348278e+38
0.24227244 -0.16116278 1.8010001 -2.4615162e+38
0.24774781 -0.16151083 1.8050001 -2.3947942e+38
0.25310424 -0.1617692 1.8080001 -2.3548125e+38
0.25876167 -0.16220635 1.8130001 -2.3815013e+38
0.26386377 -0.16228543 1.8140001 -2.4749122e+38
0.26985961 -0.16290112 1.8210001 -2.5016008e+38
0.27559093 -0.16333768 1.8260001 -2.5282896e+38
0.2815024 -0.16386349 1.8320001 -2.554978e+38
0.28775856 -0.16456796 1.84 -2.6084073e+38
0.29421663 -0.16536167 1.8490001 -2.7018182e+38
0.30104667 -0.16633399 1.8600001 -2.5951672e+38
0.30826494 -0.16748486 1.8730001 -2.5151537e+38
0 0 0 -1.7014118e+38
0 0 0 -1.7014118e+38
0 0 0 -1.7014118e+38
0 0 0 -1.7014118e+38
0 0 0 -1.7014118e+38
0 0 0 -1.7014118e+38
0 0 0 -1.7014118e+38
0 0 0 -1.7014118e+38
0 0 0 -1.7014118e+38
0 0 0 -1.7014118e+38
0 0 0 -1.7014118e+38
0 0 0 -1.7014118e+38
0 0 0 -1.7014118e+38
0 0 0 -1.7014118e+38
-0.075510807 -0.18166842 1.9670001 -2.635462e+38
-0.069180906 -0.17927043 1.9410001 -2.7286644e+38
-0.063256718 -0.17761101 1.9230001 -2.6217004e+38
-0.057642199 -0.17659782 1.9120001 -2.5149452e+38
-0.052224886 -0.17604619 1.9060001 -2.5282898e+38
-0.046840329 -0.1754943 1.9000001 -2.4615677e+38
-0.041466642 -0.17484979 1.8930001 -2.4081901e+38
-0.036073778 -0.17392792 1.8830001 -2.5282898e+38
-0.030801356 -0.17337528 1.8770001 -2.5149454e+38
-0.025575439 -0.17291474 1.8720001 -2.4883608e+38
-0.020420551 -0.17282343 1.8710001 -2.4349832e+38
-0.015262911 -0.17263955 1.8690001 -2.3682096e+38
-0.010116197 -0.1724554 1.8670001 -2.301488e+38
-0.0049857739 -0.17245576 1.8670001 -2.2614548e+38
0.00014443712 -0.17217873 1.8640001 -2.2747475e+38
0.0052638105 -0.17208624 1.863 -2.2480591e+38
0.010377667 -0.17199351 1.8620001 -2.2081301e+38
0.015502626 -0.17208529 1.863 -2.2214745e+38
0.02063302 -0.17217681 1.8640001 -2.2081303e+38
0.025741182 -0.17208335 1.863 -2.2214747e+38
0.030827183 -0.17189731 1.8610001 -2.1815458e+38
0.035902061 -0.17171101 1.8590001 -2.1948902e+38
0.041009922 -0.17170921 1.8590001 -2.1815458e+38
0.045993578 -0.17124537 1.8540001 -2.2749566e+38
0.050894458 -0.17059658 1.8470001 -2.2349234e+38
0.055817269 -0.17013229 1.8420001 -2.2081301e+38
0.060844559 -0.17003721 1.8410001 -2.1947857e+38
0.065937713 -0.17012663 1.8420001 -2.2348702e+38
0.071036093 -0.17021582 1.8430001 -2.3149367e+38
0.076180957 -0.17039712 1.845 -2.4215873e+38
0.081204399 -0.17030114 1.8440001 -2.3948985e+38
0.086175226 -0.17011259 1.8420001 -2.421483e+38
0.091283306 -0.17020085 1.8430001 -2.4481718e+38
0.096501052 -0.17047359 1.8460001 -2.4081386e+38
0.10156982 -0.17046906 1.8460001 -2.421483e+38
0.10646489 -0.17018726 1.8430001 -2.421483e+38
0.11128253 -0.16981293 1.8390001 -2.4348789e+38
0.11614102 -0.16953073 1.8360001 -2.4348789e+38
0.1210486 -0.16934069 1.8340001 -2.4082944e+38
0.1258072 -0.16896574 1.83 -2.4215873e+38
0.13054337 -0.16859062 1.8260001 -2.4482765e+38
0.13540553 -0.16839997 1.8240001 -2.3282294e+38
0.14025618 -0.16820912 1.8220001 -2.1547527e+38
0.14509529 -0.16801807 1.8200001 -2.1013751e+38
0.14992289 -0.16782685 1.8180001 -2.1014278e+38
0.15473892 -0.16763541 1.8160001 -2.0880834e+38
0.15954341 -0.16744381 1.8140001 -2.1014278e+38
0.16424561 -0.16715972 1.8110001 -2.074739e+38
0.16911758 -0.16706003 1.8100001 -2.1014278e+38
0.1738873 -0.16686788 1.8080001 -2.0880834e+38
0.17864536 -0.16667557 1.8060001 -2.0613946e+38
0.18339179 -0.16648306 1.8040001 -2.0880834e+38
0.18833539 -0.16647497 1.8040001 -2.1281166e+38
0.19317113 -0.16637437 1.8030001 -2.1147722e+38
0.19800068 -0.16627364 1.802 -2.1680971e+38
0.20282406 -0.16617273 1.8010001 -2.1947857e+38
0.2076412 -0.16607165 1.8000001 -2.2615077e+38
0.2126883 -0.16615491 1.8010001 -2.3148324e+38
0.21749847 -0.1660535 1.8000001 -2.36821e+38
0.22254951 -0.16613641 1.8010001 -2.3948985e+38
0.22760527 -0.16621916 1.802 -2.4482761e+38
0.23279476 -0.16639398 1.8040001 -2.488205e+38
0.23799434 -0.16656858 1.8060001 -2.3814498e+38
0.24306959 -0.1666508 1.807 -2.3414166e+38
0.24842395 -0.16691729 1.8100001 -2.3814498e+38
0.25365388 -0.16709137 1.812 -2.3549168e+38
0.25917938 -0.1674497 1.8160001 -2.4216388e+38
0.26443496 -0.16762343 1.8180001 -2.4750164e+38
0.27029338 -0.16816579 1.8240001 -2.5282896e+38
0.27603275 -0.16861571 1.8290001 -2.5549784e+38
0.2817986 -0.16906548 1.8340001 -2.554978e+38
0.28806004 -0.16979158 1.8420001 -2.6483888e+38
0.29420516 -0.17042525 1.8490001 -2.6483892e+38
0.30071127 -0.17124304 1.858 -2.5418427e+38
0.30759478 -0.17224491 1.8690001 -2.4351917e+38
0 0 0 -1.7014118e+38
0 0 0 -1.7014118e+38
0 0 0 -1.7014118e+38
0 0 0 -1.7014118e+38
0 0 0 -1.7014118e+38
0 0 0 -1.7014118e+38
0 0 0 -1.7014118e+38
0 0 0 -1.7014118e+38
0 0 0 -1.7014118e+38
0 0 0 -1.7014118e+38
-0.082226202 -0.19010364 1.9990001 -2.9957614e+38
-0.075660817 -0.18744458 1.9710001 -2.4218473e+38
-0.06935586 -0.18507047 1.9460001 -2.7953864e+38
-0.063352428 -0.18317156 1.9260001 -2.6751823e+38
-0.05772993 -0.18212827 1.9150001 -2.5016008e+38
-0.052277226 -0.18146513 1.9080001 -2.4749122e+38
-0.046887428 -0.18089686 1.9020001 -2.4482233e+38
-0.041530401 -0.18032832 1.8960001 -2.4215345e+38
-0.03616786 -0.17956927 1.8880001 -2.4081901e+38
-0.030898357 -0.17909533 1.8830001 -2.5282898e+38
-0.025628878 -0.17843089 1.876 -2.5149454e+38
-0.02045233 -0.17824177 1.8740001 -2.461672e+38
-0.015270355 -0.17786218 1.8700001 -2.4883608e+38
-0.010126555 -0.17776766 1.8690001 -2.4482761e+38
-0.0049855383 -0.17757781 1.8670001 -2.3548652e+38
0.00014450778 -0.17738768 1.8650001 -2.3014363e+38
0.005266387 -0.17729244 1.8640001 -2.3147807e+38
0.010377177 -0.17710185 1.8620001 -2.2880923e+38
0.015493574 -0.17710122 1.8620001 -2.2481633e+38
0.020609906 -0.17710035 1.8620001 -2.2081301e+38
0.025726153 -0.17709926 1.8620001 -2.1815458e+38
0.030809164 -0.17690769 1.8600001 -2.1948902e+38
0.035900369 -0.17681096 1.8590001 -2.1948902e+38
0.041007992 -0.17680913 1.8590001 -2.1415125e+38
0.046090636 -0.17671195 1.858 -2.221579e+38
0.051029831 -0.17613898 1.8520001 -2.3016454e+38
0.055996444 -0.17575599 1.848 -2.261612e+38
0.061006948 -0.17556301 1.8460001 -2.261612e+38
0.066149391 -0.17575018 1.848 -2.2883523e+38
0.071456723 -0.17631753 1.8540001 -2.3282294e+38
0.076838009 -0.17697971 1.8610001 -2.3549182e+38
0.082125343 -0.17735636 1.8650001 -2.3682626e+38
0.087293945 -0.17744742 1.8660001 -2.3815027e+38
0.092517242 -0.17763339 1.868 -2.3548143e+38
0.097907953 -0.17810437 1.8730001 -2.3815031e+38
0.10305063 -0.17809963 1.8730001 -2.3815031e+38
0.10796183 -0.17771432 1.8690001 -2.4081915e+38
0.1126086 -0.17694849 1.8610001 -2.3815027e+38
0.11740077 -0.17646772 1.8560001 -2.36821e+38
0.12236301 -0.17627196 1.8540001 -2.3816587e+38
0.1271763 -0.17588584 1.8500001 -2.3282294e+38
0.1316812 -0.17511928 1.8420001 -2.2214745e+38
0.13621588 -0.17444757 1.835 -2.1014793e+38
0.14086559 -0.17396586 1.83 -2.0613946e+38
0.14548731 -0.17348395 1.825 -2.1147722e+38
0.15008102 -0.17300186 1.8200001 -2.141461e+38
0.15473194 -0.17261468 1.8160001 -2.141461e+38
0.15944827 -0.17232233 1.8130001 -2.1814942e+38
0.16423824 -0.17212489 1.8110001 -2.1548054e+38
0.16901658 -0.17192723 1.8090001 -2.1547012e+38
0.17378336 -0.1717294 1.807 -2.1681498e+38
0.17843959 -0.17143635 1.8040001 -2.1814942e+38
0.18318036 -0.17123817 1.802 -2.1948386e+38
0.18801388 -0.17113484 1.8010001 -2.2349234e+38
0.19294839 -0.17112635 1.8010001 -2.2748523e+38
0.19755252 -0.17083262 1.7980001 -2.301541e+38
0.20259 -0.17091879 1.7990001 -2.3414695e+38
0.20740147 -0.17081474 1.7980001 -2.3548656e+38
0.21279719 -0.17118552 1.802 -2.3947942e+38
0.21785159 -0.1712711 1.8030001 -2.4482233e+38
0.22340493 -0.17173645 1.8080001 -2.4749122e+38
0.22835338 -0.17172666 1.8080001 -2.3948457e+38
0.23355907 -0.17190665 1.8100001 -2.3815013e+38
0.23851137 -0.17189652 1.8100001 -2.314832e+38
0.24346289 -0.17188622 1.8100001 -2.3415208e+38
0.24855079 -0.17197074 1.8110001 -2.3549168e+38
0.2539233 -0.17224498 1.8140001 -2.39495e+38
0.25931132 -0.17251903 1.817 -2.4082944e+38
0.26471499 -0.17279291 1.8200001 -2.4483276e+38
0.27043045 -0.17325644 1.825 -2.5017052e+38
0.27617243 -0.17371981 1.83 -2.5282896e+38
0.28178722 -0.17408802 1.8340001 -2.5816672e+38
0.28789204 -0.17474081 1.8410001 -2.5282896e+38
0.29403427 -0.17539334 1.848 -2.5950116e+38
0.30086118 -0.17642529 1.8590001 -2.4884651e+38
0.30758262 -0.17736207 1.8690001 -2.5019137e+38
0 0 0 -1.7014118e+38
0 0 0 -1.7014118e+38
0 0 0 -1.7014118e+38
0 0 0 -1.7014118e+38
0 0 0 -1.7014118e+38
0 0 0 -1.7014118e+38
0 0 0 -1.7014118e+38
0 0 0 -1.7014118e+38
0 0 0 -1.7014118e+38
0 0 0 -1.7014118e+38
0 0 0 -1.7014118e+38
0 0 0 -1.7014118e+38
0 0 0 -1.7014118e+38
0 0 0 -1.7014118e+38
0 0 0 -1.7014118e+38
-0.081810944 -0.1946079 1.9890001 -3.0224498e+38
-0.075542025 -0.19255701 1.9680001 -2.3685214e+38
-0.069316886 -0.19031012 1.9450001 -2.7419558e+38
-0.063316479 -0.18835641 1.9250001 -2.728507e+38
-0.057666857 -0.18718518 1.9130001 -2.6484405e+38
-0.052219912 -0.18650293 1.9060001 -2.4749115e+38
-0.046860509 -0.1860161 1.9010001 -2.4615675e+38
-0.041550294 -0.18562685 1.8970001 -2.4749119e+38
-0.036242735 -0.18513949 1.8920001 -2.4749122e+38
-0.030978905 -0.18474972 1.8880001 -2.4348789e+38
-0.025695939 -0.1840661 1.881 -2.501601e+38
-0.020494992 -0.1837737 1.8780001 -2.5683228e+38
-0.015294112 -0.18328528 1.8730001 -2.5149452e+38
-0.010131483 -0.18299235 1.8700001 -2.501601e+38
-0.0049799564 -0.18250343 1.8650001 -2.461672e+38
0.00014434582 -0.18230781 1.863 -2.4215873e+38
0.0052604815 -0.18220983 1.8620001 -2.3415208e+38
0.010376672 -0.18220945 1.8620001 -2.3415212e+38
0.015492822 -0.18220881 1.8620001 -2.2882479e+38
0.020608908 -0.18220793 1.8620001 -2.2749035e+38
0.025697274 -0.1820111 1.8600001 -2.2881961e+38
0.030791108 -0.18191184 1.8590001 -2.2483191e+38
0.035879318 -0.18181235 1.858 -2.19489e+38
0.04100601 -0.18190832 1.8590001 -2.1682011e+38
0.046088409 -0.18180832 1.858 -2.1548569e+38
0.051137574 -0.18161024 1.8560001 -2.1948902e+38
0.056145243 -0.18131408 1.853 -2.2481633e+38
0.061202284 -0.18121338 1.8520001 -2.1815456e+38
0.066504143 -0.18179734 1.858 -2.1148235e+38
0.071877234 -0.18247889 1.8650001 -2.1281681e+38
0.077371046 -0.18335584 1.8740001 -2.1948902e+38
0.082649805 -0.18364549 1.8770001 -2.0480502e+38
0.087991469 -0.18403271 1.881 -2.008017e+38
0.093255684 -0.18422398 1.8830001 -1.9946212e+38
0.09863507 -0.18461068 1.8870001 -1.9280556e+38
0.10387097 -0.18470363 1.8880001 -1.9013672e+38
0.10893865 -0.18450284 1.886 -1.9147114e+38
0.11345036 -0.18342142 1.8750001 -2.0614988e+38
0.11802772 -0.18253544 1.8660001 -2.074739e+38
0.12288521 -0.18213843 1.8620001 -2.1814942e+38
0.12772024 -0.18174118 1.858 -2.1548054e+38
0.1322469 -0.18095247 1.8500001 -1.9946728e+38
0.13658065 -0.17996797 1.84 -2.141461e+38
0.1411669 -0.17937456 1.8340001 -2.1947344e+38
0.14563996 -0.17868316 1.8270001 -2.1413568e+38
0.15007405 -0.17799158 1.8200001 -2.1680456e+38
0.15472479 -0.17759326 1.8160001 -2.2481635e+38
0.15935296 -0.17719471 1.812 -2.2880923e+38
0.16413999 -0.1769916 1.8100001 -2.3148854e+38
0.16891541 -0.17678829 1.8080001 -2.3147807e+38
0.17358308 -0.17648701 1.8050001 -2.3414695e+38
0.17823362 -0.17618555 1.802 -2.314885e+38
0.18307041 -0.17607945 1.8010001 -2.3815545e+38
0.18800536 -0.17607093 1.8010001 -2.36821e+38
0.19283256 -0.17596446 1.8000001 -2.381554e+38
0.19743378 -0.17566231 1.7970001 -2.4082429e+38
0.20235571 -0.17565323 1.7970001 -2.3948457e+38
0.20750761 -0.17583948 1.7990001 -2.4215345e+38
0.21302393 -0.17631872 1.8040001 -2.4347228e+38
0.21832523 -0.17660223 1.807 -2.4881004e+38
0.22364222 -0.17688556 1.8100001 -2.4081901e+38
0.2284697 -0.17677781 1.8090001 -2.3815013e+38
0.23354889 -0.17686529 1.8100001 -2.3815013e+38
0.23850104 -0.17685491 1.8100001 -2.3815013e+38
0.24358688 -0.17694207 1.8110001 -2.3815013e+38
0.24867736 -0.17702904 1.812 -2.3948457e+38
0.25391245 -0.17721353 1.8140001 -2.4348789e+38
0.25915763 -0.17739785 1.8160001 -2.4749122e+38
0.26470378 -0.17777734 1.8200001 -2.5282898e+38
0.2705673 -0.178352 1.8260001 -2.501601e+38
0.27646273 -0.17892639 1.8320001 -2.541634e+38
0.28192911 -0.17920759 1.835 -2.5816672e+38
0.28788015 -0.1797816 1.8410001 -2.5549784e+38
0.29370397 -0.18025772 1.8460001 -2.5282898e+38
0.30068702 -0.18141714 1.858 -2.421743e+38
0 0 0 -1.7014118e+38
0 0 0 -1.7014118e+38
0 0 0 -1.7014118e+38
0 0 0 -1.7014118e+38
0 0 0 -1.7014118e+38
0 0 0 -1.7014118e+38
0 0 0 -1.7014118e+38
0 0 0 -1.7014118e+38
0 0 0 -1.7014118e+38
0 0 0 -1.7014118e+38
0 0 0 -1.7014118e+38
0 0 0 -1.7014118e+38
0 0 0 -1.7014118e+38
0 0 0 -1.7014118e+38
0 0 0 -1.7014118e+38
0 0 0 -1.7014118e+38
0 0 0 -1.7014118e+38
-0.08147788 -0.1992577 1.9810001 -3.0091054e+38
-0.075269617 -0.19724989 1.9610001 -2.3952102e+38
-0.069242187 -0.19544293 1.9430001 -2.715267e+38
-0.063280463 -0.19353504 1.9240001 -2.7418514e+38
-0.057664003 -0.19243158 1.9130001 -2.6884738e+38
-0.052189928 -0.19162959 1.9050001 -2.5149448e+38
-0.046858191 -0.1912297 1.9010001 -2.5014961e+38
-0.041570134 -0.19093013 1.8980001 -2.4614633e+38
-0.036279242 -0.19052969 1.8940001 -2.4749119e+38
-0.030993771 -0.1900284 1.8890001 -2.4615675e+38
-0.025749305 -0.18962744 1.8850001 -2.4348787e+38
-0.0205158 -0.18912563 1.8800001 -2.4615675e+38
-0.015326014 -0.18882473 1.8770001 -2.4615675e+38
-0.010136396 -0.18822175 1.8710001 -2.501601e+38
-0.0049823783 -0.18771912 1.8660001 -2.461672e+38
0.00014433864 -0.18741746 1.863 -2.4349832e+38
0.0052573951 -0.18721613 1.8610001 -2.4750164e+38
0.010365012 -0.18711513 1.8600001 -2.4616205e+38
0.015475413 -0.18711449 1.8600001 -2.3950027e+38
0.020563612 -0.18691237 1.858 -2.3549695e+38
0.025654553 -0.18681063 1.8570001 -2.3015923e+38
0.030756455 -0.1868092 1.8570001 -2.2882479e+38
0.035858233 -0.18680754 1.8570001 -2.2881961e+38
0.040981915 -0.18690619 1.858 -2.2348189e+38
0.046086125 -0.186904 1.858 -2.2214747e+38
0.051135048 -0.18670039 1.8560001 -2.1680971e+38
0.056233365 -0.18669769 1.8560001 -2.1680971e+38
0.061397538 -0.18689594 1.858 -2.2214747e+38
0.066822991 -0.18779804 1.8670001 -2.2481635e+38
0.072259068 -0.18859927 1.8750001 -2.2614564e+38
0.077573664 -0.18899788 1.8790001 -2.1413568e+38
0.082777835 -0.18909447 1.8800001 -2.0880836e+38
0.088127479 -0.18949255 1.8840001 -2.0613433e+38
0.093449213 -0.18978977 1.8870001 -2.0080705e+38
0.098891594 -0.1902879 1.8920001 -1.9680894e+38
0.10414097 -0.19038345 1.8930001 -1.888023e+38
0.1092799 -0.19027762 1.8920001 -1.9414006e+38
0.11380787 -0.18916589 1.881 -2.0615516e+38
0.11827499 -0.18805398 1.8700001 -2.0481546e+38
0.12294526 -0.18734412 1.863 -2.1014278e+38
0.12778281 -0.18693575 1.8590001 -2.1548054e+38
0.13252646 -0.18642664 1.8540001 -2.2081831e+38
0.13701944 -0.18561564 1.8460001 -2.1681498e+38
0.141545 -0.18490505 1.8390001 -2.1013236e+38
0.14603157 -0.18419428 1.8320001 -2.314834e+38
0.15047917 -0.18348333 1.825 -2.2880406e+38
0.15488783 -0.18277223 1.8180001 -2.3014367e+38
0.15943335 -0.18226202 1.8130001 -2.3548139e+38
0.16413222 -0.1819527 1.8100001 -2.3415212e+38
0.16881402 -0.18164317 1.807 -2.3815545e+38
0.17357494 -0.18143402 1.8050001 -2.4215877e+38
0.17832421 -0.18122463 1.8030001 -2.3682096e+38
0.18326516 -0.18121612 1.8030001 -2.4081386e+38
0.18810104 -0.18110688 1.802 -2.4081901e+38
0.19293076 -0.18099745 1.8010001 -2.3948457e+38
0.19764443 -0.18078735 1.7990001 -2.4348789e+38
0.20268422 -0.18087852 1.8000001 -2.4215345e+38
0.20772879 -0.18096952 1.8010001 -2.4482233e+38
0.21313232 -0.18136173 1.8050001 -2.4480672e+38
0.21831538 -0.18155278 1.807 -2.4480672e+38
0.2235086 -0.18174361 1.8090001 -2.4215345e+38
0.22858573 -0.18183379 1.8100001 -2.3948457e+38
0.23366752 -0.18192379 1.8110001 -2.4081901e+38
0.23875396 -0.1820136 1.812 -2.4081901e+38
0.24371062 -0.18200277 1.812 -2.4348789e+38
0.24880366 -0.18209222 1.8130001 -2.4348789e+38
0.25404128 -0.18228191 1.8150001 -2.4348789e+38
0.25928903 -0.18247141 1.817 -2.4615677e+38
0.26483774 -0.1828616 1.8210001 -2.5149452e+38
0.27055562 -0.18335196 1.8260001 -2.4882566e+38
0.27645087 -0.18394254 1.8320001 -2.5149454e+38
0.28207076 -0.18433207 1.8360001 -2.6350448e+38
0.28786796 -0.1848218 1.8410001 -2.5816674e+38
0.29385072 -0.18541171 1.8470001 -2.4750164e+38
0.30132174 -0.1869048 1.8620001 -2.3950542e+38
0 0 0 -1.7014118e+38
0 0 0 -1.7014118e+38
0 0 0 -1.7014118e+38
0 0 0 -1.7014118e+38
0 0 0 -1.7014118e+38
0 0 0 -1.7014118e+38
0 0 0 -1.7014118e+38
0 0 0 -1.7014118e+38
0 0 0 -1.7014118e+38
0 0 0 -1.7014118e+38
0 0 0 -1.7014118e+38
0 0 0 -1.7014118e+38
0 0 0 -1.7014118e+38
0 0 0 -1.7014118e+38
0 0 0 -1.7014118e+38
-0.081227005 -0.20406954 1.9750001 -3.0358463e+38
-0.075112306 -0.20221363 1.9570001 -2.38197e+38
-0.06916742 -0.20056404 1.9410001 -2.6485977e+38
-0.063343041 -0.19901747 1.9260001 -2.7418514e+38
-0.057721369 -0.1978839 1.9150001 -2.7417471e+38
-0.052214682 -0.19695672 1.9060001 -2.5816668e+38
-0.046831161 -0.19633923 1.9000001 -2.5549254e+38
-0.041524224 -0.19592814 1.8960001 -2.5149448e+38
-0.036277398 -0.19572347 1.8940001 -2.5016008e+38
-0.030992193 -0.1952085 1.8890001 -2.4882564e+38
-0.025720676 -0.19458994 1.8830001 -2.4749122e+38
-0.020503839 -0.19417775 1.8790001 -2.4482233e+38
-0.015308903 -0.19376531 1.8750001 -2.4482233e+38
-0.010141297 -0.19345595 1.8720001 -2.4482231e+38
-0.0049901349 -0.19314632 1.8690001 -2.4482233e+38
0.00014448623 -0.19273306 1.8650001 -2.4482233e+38
0.0052571273 -0.19231954 1.8610001 -2.4615677e+38
0.010353339 -0.19200912 1.858 -2.4882566e+38
0.015457984 -0.19200845 1.858 -2.4483276e+38
0.020540433 -0.19180086 1.8560001 -2.4216388e+38
0.025653249 -0.19190301 1.8570001 -2.4349832e+38
0.030771453 -0.19200487 1.858 -2.3816056e+38
0.035895027 -0.1921065 1.8590001 -2.314832e+38
0.041023951 -0.19220789 1.8600001 -2.3281768e+38
0.046083786 -0.19199896 1.858 -2.3014363e+38
0.051187553 -0.19199647 1.858 -2.2880919e+38
0.056351703 -0.19220039 1.8600001 -2.3014363e+38
0.061559647 -0.19250736 1.863 -2.3281255e+38
0.066962771 -0.19333073 1.8710001 -2.2881968e+38
0.072255433 -0.19374052 1.8750001 -2.1947344e+38
0.07756976 -0.19414997 1.8790001 -2.1547012e+38
0.082773663 -0.19424921 1.8800001 -2.101428e+38
0.088169828 -0.19476148 1.8850001 -2.1148771e+38
0.093593091 -0.19527347 1.8900001 -2.0348114e+38
0.099043436 -0.19578518 1.8950001 -2.0081226e+38
0.1043008 -0.19588336 1.8960001 -1.9280047e+38
0.1093322 -0.19556803 1.8930001 -1.954745e+38
0.1138022 -0.19432268 1.881 -2.0748445e+38
0.11826913 -0.19318049 1.8700001 -2.0881883e+38
0.12287318 -0.19234799 1.8620001 -2.0748434e+38
0.12763903 -0.19182523 1.8570001 -2.1014278e+38
0.13237695 -0.19130224 1.8520001 -2.141461e+38
0.13701271 -0.19067578 1.8460001 -2.1948386e+38
0.141615 -0.19004911 1.84 -2.2347676e+38
0.14618383 -0.18942228 1.8340001 -2.1547527e+38
0.15071918 -0.18879525 1.8280001 -2.3147811e+38
0.15505067 -0.1879615 1.8200001 -2.3414695e+38
0.15942562 -0.18723086 1.8130001 -2.3281768e+38
0.16403362 -0.18680987 1.8090001 -2.314832e+38
0.16871251 -0.18649197 1.8060001 -2.3414166e+38
0.17366275 -0.18648362 1.8060001 -2.4348789e+38
0.17861237 -0.18647508 1.8060001 -2.4482233e+38
0.18356134 -0.18646634 1.8060001 -2.4482233e+38
0.18830086 -0.18625088 1.8040001 -2.4482233e+38
0.19313587 -0.18613851 1.8030001 -2.4482233e+38
0.19818442 -0.1862324 1.8040001 -2.4348789e+38
0.20312513 -0.18622287 1.8040001 -2.4881004e+38
0.20829576 -0.18641956 1.8060001 -2.4614116e+38
0.21335852 -0.18651281 1.807 -2.4614116e+38
0.21842606 -0.18660589 1.8080001 -2.4213784e+38
0.22349828 -0.18669875 1.8090001 -2.4480672e+38
0.22870147 -0.18689463 1.8110001 -2.4348789e+38
0.23365681 -0.18688391 1.8110001 -2.4081901e+38
0.23874311 -0.18697621 1.812 -2.3681569e+38
0.2435651 -0.18686196 1.8110001 -2.4215345e+38
0.24879245 -0.18705706 1.8130001 -2.4482233e+38
0.25416988 -0.18735515 1.8160001 -2.4215345e+38
0.25956285 -0.18765303 1.8190001 -2.4881521e+38
0.26540771 -0.18826018 1.825 -2.5014965e+38
0.2709882 -0.1886608 1.8290001 -2.5016008e+38
0.27689144 -0.18926749 1.835 -2.5282896e+38
0.28251931 -0.18966767 1.8390001 -2.5149452e+38
0.28801185 -0.18996452 1.8420001 -2.5282896e+38
0.29415625 -0.19067369 1.8490001 -2.4349832e+38
0.30163252 -0.19220753 1.8640001 -2.3950542e+38
0 0 0 -1.7014118e+38
0 0 0 -1.7014118e+38
0 0 0 -1.7014118e+38
0 0 0 -1.7014118e+38
0 0 0 -1.7014118e+38
0 0 0 -1.7014118e+38
0 0 0 -1.7014118e+38
0 0 0 -1.7014118e+38
0 0 0 -1.7014118e+38
0 0 0 -1.7014118e+38
-0.081305072 -0.2096962 1.9770001 -3.1292572e+38
-0.074916527 -0.20704855 1.9520001 -2.5819802e+38
-0.069056951 -0.2055673 1.9380001 -2.5551871e+38
-0.063339762 -0.2042979 1.9260001 -2.7017664e+38
-0.057748523 -0.20324033 1.9160001 -2.6616807e+38
-0.05221197 -0.20218246 1.9060001 -2.5950629e+38
-0.046828732 -0.20154858 1.9000001 -2.5550297e+38
-0.041522067 -0.20112661 1.8960001 -2.5416336e+38
-0.036256362 -0.20081039 1.8930001 -2.5683228e+38
-0.030974178 -0.20028174 1.8880001 -2.5816672e+38
-0.025746655 -0.199965 1.8850001 -2.5549786e+38
-0.020513685 -0.1994358 1.8800001 -2.5282898e+38
-0.015316268 -0.19901241 1.876 -2.5149454e+38
-0.010140768 -0.19858874 1.8720001 -2.4882564e+38
-0.0049925447 -0.19837698 1.8700001 -2.4615677e+38
0.00014455616 -0.19795276 1.8660001 -2.4615677e+38
0.0052596778 -0.19752829 1.8620001 -2.4615677e+38
0.010358372 -0.19720963 1.8590001 -2.4482233e+38
0.015457179 -0.19710286 1.858 -2.4615677e+38
0.020550428 -0.19699582 1.8570001 -2.39495e+38
0.025665727 -0.1971007 1.858 -2.39495e+38
0.030786412 -0.19720529 1.8590001 -2.39495e+38
0.035912473 -0.19730964 1.8600001 -2.4215873e+38
0.04102182 -0.19730762 1.8600001 -2.3682096e+38
0.046155803 -0.19741139 1.8610001 -2.3548656e+38
0.051322639 -0.197621 1.863 -2.36821e+38
0.056591138 -0.19814853 1.868 -2.36821e+38
0.061853837 -0.19856974 1.8720001 -2.3147807e+38
0.06710247 -0.19888459 1.8750001 -2.2747479e+38
0.072290234 -0.19898701 1.876 -2.2080788e+38
0.077565759 -0.1993013 1.8790001 -2.1947344e+38
0.082813434 -0.19950926 1.881 -2.1414612e+38
0.08825884 -0.20014121 1.8870001 -2.1147209e+38
0.093687318 -0.20066679 1.8920001 -2.0481559e+38
0.099195153 -0.20129815 1.8980001 -1.9947782e+38
0.10440548 -0.20129287 1.8980001 -1.9013159e+38
0.10938438 -0.20086315 1.8940001 -1.9280562e+38
0.11385691 -0.19958477 1.8820001 -2.0881889e+38
0.11832635 -0.19841227 1.8710001 -2.1282215e+38
0.12280096 -0.19734563 1.8610001 -2.1414612e+38
0.12756385 -0.19680902 1.8560001 -2.1281166e+38
0.13229881 -0.19627221 1.8510001 -2.1147722e+38
0.13700579 -0.19573516 1.8460001 -2.141461e+38
0.14168486 -0.19519794 1.8410001 -2.18139e+38
0.14649531 -0.19487256 1.8380001 -2.2214747e+38
0.1511239 -0.19433494 1.8330001 -2.1947857e+38
0.15555409 -0.19358508 1.8260001 -2.3815027e+38
0.1596815 -0.19251703 1.8160001 -2.3415212e+38
0.16411619 -0.19187285 1.8100001 -2.3415208e+38
0.16879757 -0.19154651 1.807 -2.3682612e+38
0.17375037 -0.19153799 1.807 -2.4482233e+38
0.17870252 -0.19152926 1.807 -2.4482233e+38
0.18355238 -0.19141433 1.8060001 -2.4215345e+38
0.18829171 -0.19119321 1.8040001 -2.4215345e+38
0.19323365 -0.19118387 1.8040001 -2.4482233e+38
0.19839454 -0.19138622 1.8060001 -2.4749122e+38
0.20334055 -0.19137646 1.8060001 -2.4215345e+38
0.20840113 -0.19147246 1.807 -2.4213784e+38
0.21346645 -0.19156823 1.8080001 -2.474756e+38
0.21853651 -0.19166379 1.8090001 -2.4614116e+38
0.22373481 -0.1918651 1.8110001 -2.4480672e+38
0.228817 -0.19196026 1.812 -2.4614116e+38
0.23390393 -0.19205524 1.8130001 -2.3948457e+38
0.23886371 -0.19204408 1.8130001 -2.3948457e+38
0.24382275 -0.19203275 1.8130001 -2.4348789e+38
0.24905542 -0.19223307 1.8150001 -2.4215345e+38
0.25471807 -0.19275092 1.8200001 -2.4348789e+38
0.2599791 -0.19295081 1.8220001 -2.4749122e+38
0.26583195 -0.19357412 1.8280001 -2.4749122e+38
0.27142045 -0.1939854 1.8320001 -2.4882566e+38
0.27718076 -0.19450232 1.8370001 -2.4348789e+38
0.28281397 -0.19491318 1.8410001 -2.4482233e+38
0.28831178 -0.19521795 1.8440001 -2.501601e+38
0.2950978 -0.19636941 1.8550001 -2.4750164e+38
0.30339924 -0.19847323 1.8750001 -2.5685315e+38
0 0 0 -1.7014118e+38
0 0 0 -1.7014118e+38
0 0 0 -1.7014118e+38
0 0 0 -1.7014118e+38
0 0 0 -1.7014118e+38
0 0 0 -1.7014118e+38
0 0 0 -1.7014118e+38
0 0 0 -1.7014118e+38
0 0 0 -1.7014118e+38
0 0 0 -1.7014118e+38
0 0 0 -1.7014118e+38
0 0 0 -1.7014118e+38
-0.074989326 -0.21261695 1.9540001 -2.4353489e+38
-0.068982035 -0.21066216 1.9360001 -2.6220138e+38
-0.063369289 -0.20968637 1.927 -2.6617338e+38
-0.057835881 -0.20881911 1.9190001 -2.6082513e+38
-0.05231877 -0.20784269 1.9100001 -2.6617849e+38
-0.046875536 -0.20697477 1.9020001 -2.5683741e+38
-0.04156366 -0.2065419 1.8980001 -2.5950112e+38
-0.036235284 -0.20589106 1.8920001 -2.6350448e+38
-0.030972533 -0.20545758 1.8880001 -2.6084603e+38
-0.025717968 -0.20491497 1.8830001 -2.5549786e+38
-0.020512594 -0.20458975 1.8800001 -2.5149454e+38
-0.015315454 -0.20415542 1.876 -2.501601e+38
-0.010140229 -0.20372079 1.8720001 -2.5016008e+38
-0.0049922788 -0.20350356 1.8700001 -2.5016008e+38
0.00014462593 -0.20317721 1.8670001 -2.4081899e+38
0.0052678715 -0.20295942 1.8650001 -2.4615675e+38
0.010380107 -0.20274135 1.863 -2.5014448e+38
0.01549795 -0.20274064 1.863 -2.4215345e+38
0.020604664 -0.20263085 1.8620001 -2.3948457e+38
0.025719613 -0.20262961 1.8620001 -2.4482233e+38
0.030834457 -0.20262809 1.8620001 -2.4482233e+38
0.035968479 -0.2027351 1.863 -2.381554e+38
0.041129909 -0.20295069 1.8650001 -2.3548652e+38
0.046302158 -0.20316599 1.8670001 -2.3548656e+38
0.051540293 -0.20359862 1.8710001 -2.3548656e+38
0.056800202 -0.20403101 1.8750001 -2.3681583e+38
0.061982725 -0.20413662 1.876 -2.2880923e+38
0.067170493 -0.20424199 1.8770001 -2.2880406e+38
0.072363488 -0.20434709 1.8780001 -2.1680456e+38
0.077644221 -0.20466951 1.881 -2.1547012e+38
0.08298517 -0.20510046 1.8850001 -2.1414612e+38
0.088441283 -0.20574874 1.891 -2.1414097e+38
0.093880467 -0.20628791 1.8960001 -2.0481556e+38
0.099346735 -0.20682679 1.9010001 -1.9947782e+38
0.10451003 -0.20671259 1.9000001 -1.9414006e+38
0.10932092 -0.2059454 1.8930001 -1.9680894e+38
0.11379049 -0.20463401 1.881 -2.0614994e+38
0.11832021 -0.20354004 1.8710001 -2.1415655e+38
0.12286058 -0.20255464 1.8620001 -2.1814942e+38
0.12748852 -0.20178664 1.8550001 -2.1281166e+38
0.13222052 -0.20123595 1.8500001 -2.1548054e+38
0.13692454 -0.20068507 1.845 -2.1281166e+38
0.14160062 -0.20013399 1.84 -2.1680456e+38
0.14640813 -0.19980022 1.8370001 -2.18139e+38
0.15128106 -0.19957501 1.835 -2.2348189e+38
0.1558869 -0.19902331 1.83 -2.3681587e+38
0.16020097 -0.19814518 1.8220001 -2.4082433e+38
0.16447057 -0.19726688 1.8140001 -2.3682096e+38
0.16916272 -0.19693212 1.8110001 -2.39495e+38
0.17374165 -0.19648844 1.807 -2.39495e+38
0.17869358 -0.1964795 1.807 -2.4348789e+38
0.18364485 -0.19647036 1.807 -2.4615677e+38
0.18849109 -0.19635227 1.8060001 -2.4081901e+38
0.19354539 -0.19645143 1.807 -2.4615677e+38
0.19838478 -0.19633293 1.8060001 -2.474756e+38
0.20333056 -0.19632293 1.8060001 -2.4614116e+38
0.20827563 -0.19631277 1.8060001 -2.4881004e+38
0.21345605 -0.19651973 1.8080001 -2.4614116e+38
0.21852593 -0.19661784 1.8090001 -2.5014448e+38
0.22372402 -0.19682439 1.8110001 -2.4347228e+38
0.22893229 -0.19703072 1.8130001 -2.4480672e+38
0.23402177 -0.19712819 1.8140001 -2.4480672e+38
0.23911585 -0.19722545 1.8150001 -2.4482233e+38
0.24421467 -0.19732252 1.8160001 -2.4348789e+38
0.2491809 -0.19731075 1.8160001 -2.4749122e+38
0.25470608 -0.19773336 1.8200001 -2.3681569e+38
0.26025233 -0.19815576 1.8240001 -2.4215345e+38
0.26611045 -0.1987952 1.83 -2.4348789e+38
0.27140793 -0.19899991 1.8320001 -2.4215345e+38
0.27701718 -0.19942163 1.8360001 -2.3815013e+38
0.28264743 -0.19984315 1.84 -2.3681569e+38
0.28861141 -0.20048168 1.8460001 -2.4615677e+38
0.29619801 -0.20220594 1.8620001 -2.5817716e+38
0.30548909 -0.20501567 1.8880001 -2.6219091e+38
0 0 0 -1.7014118e+38
0 0 0 -1.7014118e+38
0 0 0 -1.7014118e+38
0 0 0 -1.7014118e+38
0 0 0 -1.7014118e+38
0 0 0 -1.7014118e+38
0 0 0 -1.7014118e+38
0 0 0 -1.7014118e+38
0 0 0 -1.7014118e+38
0 0 0 -1.7014118e+38
0 0 0 -1.7014118e+38
-0.075752787 -0.22020341 1.9740001 nan
-0.069120817 -0.21641454 1.9400001 -2.5153113e+38
-0.063398749 -0.2150795 1.9280001 -2.6484937e+38
-0.057862878 -0.21419038 1.9200001 -2.5816672e+38
-0.052370716 -0.21330093 1.9120001 -2.5550297e+38
-0.046946928 -0.21252273 1.9050001 -2.5550297e+38
-0.041583296 -0.21185578 1.899 -2.5683224e+38
-0.036252469 -0.21118855 1.8930001 -2.5683224e+38
-0.030970847 -0.21063258 1.8880001 -2.5950116e+38
-0.025730226 -0.21018787 1.8840001 -2.5683228e+38
-0.020522388 -0.20985444 1.881 -2.5549784e+38
-0.015322785 -0.20940918 1.8770001 -2.4615675e+38
-0.01015051 -0.20907518 1.8740001 -2.4348787e+38
-0.0049893372 -0.20851776 1.8690001 -2.4348787e+38
0.00014461805 -0.20829476 1.8670001 -2.5016008e+38
0.0052760583 -0.20840618 1.868 -2.4348787e+38
0.010418542 -0.20862888 1.8700001 -2.4348789e+38
0.015547018 -0.20851661 1.8690001 -2.4215345e+38
0.020681003 -0.20851561 1.8690001 -2.4081901e+38
0.025814898 -0.20851433 1.8690001 -2.4215873e+38
0.03093213 -0.20840119 1.868 -2.3948989e+38
0.036063053 -0.20839936 1.868 -2.3948989e+38
0.041237939 -0.20862038 1.8700001 -2.3548139e+38
0.046448436 -0.20895265 1.8730001 -2.3414695e+38
0.051675227 -0.20928463 1.876 -2.3147811e+38
0.056857705 -0.20939322 1.8770001 -2.2614035e+38
0.061979368 -0.20927842 1.876 -2.2213185e+38
0.06713108 -0.20927489 1.876 -2.2213185e+38
0.072436638 -0.2097173 1.8800001 -2.1947344e+38
0.077763878 -0.21015941 1.8840001 -2.1548054e+38
0.083112769 -0.21060123 1.8880001 -2.1281168e+38
0.088530071 -0.21115431 1.8930001 -2.0881883e+38
0.093924947 -0.21159552 1.8970001 -2.0081226e+38
0.09934143 -0.21203648 1.9010001 -1.9680894e+38
0.10455946 -0.21203098 1.9010001 -1.9280562e+38
0.10937285 -0.21124445 1.8940001 -2.0481035e+38
0.11384493 -0.20990005 1.8820001 -2.0748434e+38
0.11837716 -0.20877855 1.8720001 -2.1281166e+38
0.12298603 -0.20787987 1.8640001 -2.1680971e+38
0.12768796 -0.20720404 1.858 -2.1947859e+38
0.13235648 -0.20652801 1.8520001 -2.2081303e+38
0.13706577 -0.20596328 1.8470001 -2.2081303e+38
0.14167015 -0.2052868 1.8410001 -2.1682014e+38
0.14648017 -0.20494467 1.8380001 -2.1814415e+38
0.15135561 -0.20471381 1.8360001 -2.1547527e+38
0.15613435 -0.20437123 1.8330001 -2.1814413e+38
0.16063228 -0.20369399 1.8270001 -2.2081297e+38
0.16509672 -0.20301652 1.8210001 -2.3815027e+38
0.16962104 -0.20245038 1.8160001 -2.3948985e+38
0.17411731 -0.20188406 1.8110001 -2.4082429e+38
0.17888223 -0.20165199 1.8090001 -2.4348789e+38
0.18383877 -0.20164263 1.8090001 -2.3549168e+38
0.18889898 -0.20174453 1.8100001 -2.3816056e+38
0.19374983 -0.20162329 1.8090001 -2.4348789e+38
0.19848461 -0.20139034 1.807 -2.4215345e+38
0.20343293 -0.20138013 1.807 -2.4482233e+38
0.20849586 -0.20148119 1.8080001 -2.4348789e+38
0.21368153 -0.20169342 1.8100001 -2.4882566e+38
0.21887746 -0.20190541 1.812 -2.4215345e+38
0.22396006 -0.2020058 1.8130001 -2.4614116e+38
0.22917362 -0.20221739 1.8150001 -2.4347228e+38
0.23426834 -0.20231734 1.8160001 -2.4213784e+38
0.23949943 -0.20252848 1.8180001 -2.421483e+38
0.24474075 -0.20273942 1.8200001 -2.3947942e+38
0.24999215 -0.20295015 1.8220001 -2.3948989e+38
0.2552537 -0.20316067 1.8240001 -2.3281768e+38
0.26052529 -0.20337099 1.8260001 -2.2881436e+38
0.26609784 -0.20380384 1.83 -2.314832e+38
0.27124697 -0.20390236 1.8310001 -2.3414166e+38
0.27685332 -0.20433478 1.835 -2.3414681e+38
0.28278792 -0.2049897 1.8410001 -2.5149454e+38
0.28969237 -0.20631239 1.853 -2.6617338e+38
0.29809317 -0.20863673 1.8740001 -2.6751825e+38
0.30741671 -0.21151726 1.9000001 -2.5551871e+38
0 0 0 -1.7014118e+38
0 0 0 -1.7014118e+38
0 0 0 -1.7014118e+38
0 0 0 -1.7014118e+38
0 0 0 -1.7014118e+38
0 0 0 -1.7014118e+38
0 0 0 -1.7014118e+38
0 0 0 -1.7014118e+38
0 0 0 -1.7014118e+38
0 0 0 -1.7014118e+38
0 0 0 -1.7014118e+38
0 0 0 -1.7014118e+38
-0.069544539 -0.22310241 1.9520001 -2.9824178e+38
-0.063559659 -0.22093451 1.9330001 -2.6085132e+38
-0.057980224 -0.21990924 1.9240001 -2.5684272e+38
-0.052477375 -0.21899793 1.9160001 -2.5416336e+38
-0.047018256 -0.21808632 1.9080001 -2.5416336e+38
-0.04158099 -0.21706004 1.899 -2.5683224e+38
-0.036231305 -0.21626212 1.8920001 -2.554978e+38
-0.03098553 -0.21592109 1.8890001 -2.5816672e+38
-0.025715142 -0.21523686 1.8830001 -2.541634e+38
-0.02051034 -0.21489525 1.8800001 -2.5549784e+38
-0.015321932 -0.21455331 1.8770001 -2.4348787e+38
-0.010155363 -0.21432543 1.8750001 -2.4615675e+38
-0.0049970686 -0.21398294 1.8720001 -2.4482231e+38
0.00014499731 -0.21398306 1.8720001 -2.4082944e+38
0.0052898866 -0.21409723 1.8730001 -2.39495e+38
0.010440248 -0.21421109 1.8740001 -2.4483276e+38
0.015587743 -0.21421035 1.8740001 -2.4482765e+38
0.02072411 -0.21409504 1.8730001 -2.36821e+38
0.025896335 -0.21432234 1.8750001 -2.2880919e+38
0.031029765 -0.21420643 1.8740001 -2.2880919e+38
0.036196187 -0.21431884 1.8750001 -2.2214745e+38
0.041345906 -0.21431667 1.8750001 -2.1947857e+38
0.046520256 -0.21442851 1.876 -2.1946815e+38
0.051699918 -0.21454008 1.8770001 -2.2079741e+38
0.056854568 -0.21453705 1.8770001 -2.1814415e+38
0.062008984 -0.21453373 1.8770001 -2.18139e+38
0.067163154 -0.21453013 1.8770001 -2.18139e+38
0.072509706 -0.2150977 1.8820001 -2.2080788e+38
0.077842146 -0.21555069 1.886 -2.1147722e+38
0.083196245 -0.21600337 1.8900001 -2.1013765e+38
0.08861874 -0.21657005 1.8950001 -2.0348106e+38
0.094068334 -0.2171364 1.9000001 -2.0214149e+38
0.099492759 -0.21758819 1.904 -1.954745e+38
0.10466376 -0.21746831 1.9030001 -1.9013674e+38
0.1093669 -0.21643394 1.8940001 -2.1015327e+38
0.11377826 -0.21494226 1.881 -2.1814942e+38
0.118434 -0.21402177 1.8730001 -2.2748008e+38
0.12317731 -0.21332955 1.8670001 -2.2748523e+38
0.12788723 -0.21263716 1.8610001 -2.2881968e+38
0.13256374 -0.21194451 1.8550001 -2.3015412e+38
0.13728105 -0.21136592 1.8500001 -2.3015412e+38
0.14189343 -0.21067287 1.8440001 -2.288301e+38
0.14655206 -0.21009386 1.8390001 -2.2616122e+38
0.15126513 -0.20962887 1.835 -2.2881968e+38
0.15612607 -0.20939215 1.8330001 -2.2481635e+38
0.16071168 -0.20881251 1.8280001 -2.1680969e+38
0.16535999 -0.20834692 1.8240001 -2.1947853e+38
0.16989233 -0.20776689 1.8190001 -2.301488e+38
0.17449276 -0.20730087 1.8150001 -2.3415212e+38
0.17916951 -0.20694889 1.812 -2.3681054e+38
0.18413407 -0.20693934 1.812 -2.3948457e+38
0.18920226 -0.20704375 1.8130001 -2.3948457e+38
0.19395402 -0.20680536 1.8110001 -2.3948457e+38
0.19880392 -0.20668094 1.8100001 -2.4348789e+38
0.20364769 -0.20655634 1.8090001 -2.4215345e+38
0.20883116 -0.20677406 1.8110001 -2.4615677e+38
0.21390678 -0.20687735 1.812 -2.4081901e+38
0.21922877 -0.20720878 1.8150001 -2.4215345e+38
0.22431935 -0.20731165 1.8160001 -2.3814498e+38
0.22941464 -0.20741428 1.817 -2.3947946e+38
0.23438562 -0.2074026 1.817 -2.341417e+38
0.23948757 -0.20750482 1.8180001 -2.3681058e+38
0.24472865 -0.20772101 1.8200001 -2.3547614e+38
0.24997988 -0.20793697 1.8220001 -2.2881436e+38
0.25524122 -0.20815271 1.8240001 -2.2481104e+38
0.26051265 -0.20836824 1.8260001 -2.2214216e+38
0.26593959 -0.20869769 1.8290001 -2.3548652e+38
0.27123395 -0.20891282 1.8310001 -2.5282383e+38
0.27714184 -0.2095841 1.8370001 -2.5017052e+38
0.28354245 -0.2105974 1.8460001 -2.6217006e+38
0.29108569 -0.21240892 1.8620001 -2.701767e+38
0.29982886 -0.21501851 1.8850001 -2.6885269e+38
0.30821136 -0.21728542 1.9050001 -2.4617247e+38
0 0 0 -1.7014118e+38
0 0 0 -1.7014118e+38
0 0 0 -1.7014118e+38
0 0 0 -1.7014118e+38
0 0 0 -1.7014118e+38
0 0 0 -1.7014118e+38
0 0 0 -1.7014118e+38
0 0 0 -1.7014118e+38
0 0 0 -1.7014118e+38
0 0 0 -1.7014118e+38
0 0 0 -1.7014118e+38
-0.070217513 -0.23067442 1.9710001 nan
-0.06372048 -0.22681607 1.9380001 -2.3951589e+38
-0.058037218 -0.22541507 1.9260001 -2.4350874e+38
-0.052501801 -0.22436488 1.9170001 -2.554978e+38
-0.047064882 -0.22354841 1.9100001 -2.4749115e+38
-0.041622438 -0.2224976 1.9010001 -2.5149448e+38
-0.036286704 -0.22179756 1.8950001 -2.554978e+38
-0.031032985 -0.22144836 1.8920001 -2.501705e+38
-0.025781963 -0.22098179 1.8880001 -2.5150494e+38
-0.020563724 -0.22063199 1.8850001 -2.4348787e+38
-0.015353714 -0.22016482 1.881 -2.501601e+38
-0.01017645 -0.21993145 1.8790001 -2.4750164e+38
-0.0050074612 -0.21958072 1.876 -2.4082944e+38
0.00014537634 -0.21969794 1.8770001 -2.3948989e+38
0.0053008832 -0.21969779 1.8770001 -2.2615591e+38
0.010450796 -0.21958026 1.876 -2.1547521e+38
0.015595178 -0.21946248 1.8750001 -2.1013749e+38
0.020734001 -0.21934439 1.8740001 -2.1414081e+38
0.025894867 -0.21946011 1.8750001 -2.1414081e+38
0.031028008 -0.21934144 1.8740001 -2.1547527e+38
0.036194138 -0.21945657 1.8750001 -2.1947859e+38
0.04132152 -0.21933733 1.8740001 -2.1814415e+38
0.046492837 -0.21945186 1.8750001 -2.1814415e+38
0.051669452 -0.21956606 1.876 -2.2213185e+38
0.056851357 -0.21968003 1.8770001 -2.1814415e+38
0.06203853 -0.21979369 1.8780001 -2.1947859e+38
0.067230947 -0.21990706 1.8790001 -2.1947859e+38
0.072582684 -0.22048824 1.8840001 -2.1547012e+38
0.077879056 -0.22083507 1.8870001 -2.1547012e+38
0.083235599 -0.22129864 1.891 -2.1147724e+38
0.088660546 -0.2218789 1.8960001 -2.0880836e+38
0.094162099 -0.22257587 1.9020001 -2.0481035e+38
0.099643975 -0.22315553 1.9070001 -2.0214147e+38
0.10482292 -0.22303276 1.9060001 -1.9813815e+38
0.10959179 -0.22209063 1.8980001 -2.0348102e+38
0.11401389 -0.22056322 1.8850001 -2.248112e+38
0.11849067 -0.21926963 1.8740001 -2.2481635e+38
0.12317052 -0.21844389 1.8670001 -2.2747475e+38
0.12801762 -0.21796887 1.863 -2.2480587e+38
0.13277085 -0.21737665 1.858 -2.2347143e+38
0.13749611 -0.21678421 1.853 -2.2080255e+38
0.14188568 -0.2157236 1.8440001 -2.1546478e+38
0.14662375 -0.21524772 1.84 -2.1414077e+38
0.15117449 -0.21453767 1.8340001 -2.1414081e+38
0.15611762 -0.21441227 1.8330001 -2.2481633e+38
0.16070302 -0.21381879 1.8280001 -2.3681587e+38
0.16562307 -0.21369295 1.8270001 -2.2880923e+38
0.17016339 -0.21309905 1.8220001 -2.2614031e+38
0.17506026 -0.21297275 1.8210001 -2.2747475e+38
0.17975321 -0.21261233 1.8180001 -2.3815545e+38
0.18463236 -0.21248561 1.817 -2.3415208e+38
0.18950534 -0.21235868 1.8160001 -2.3682096e+38
0.19437216 -0.2122315 1.8150001 -2.381554e+38
0.19912298 -0.21198721 1.8130001 -2.3682096e+38
0.20408732 -0.21197657 1.8130001 -2.3816587e+38
0.20928153 -0.21219954 1.8150001 -2.3149367e+38
0.21436791 -0.21230534 1.8160001 -2.3281251e+38
0.21957982 -0.21252783 1.8180001 -2.2748517e+38
0.22455487 -0.21251628 1.8180001 -2.1947853e+38
0.2295292 -0.21250457 1.8180001 -2.2480587e+38
0.23424473 -0.21225885 1.8160001 -2.2080255e+38
0.23934373 -0.2123636 1.817 -2.1947328e+38
0.24471635 -0.21270186 1.8200001 -2.2214216e+38
0.25024176 -0.2131568 1.8240001 -2.2346613e+38
0.25550833 -0.21337774 1.8260001 -2.3815013e+38
0.26078504 -0.2135985 1.8280001 -2.5416342e+38
0.26621726 -0.21393588 1.8310001 -2.5815112e+38
0.27225754 -0.21474037 1.8380001 -2.568323e+38
0.27833518 -0.2155446 1.845 -2.6750782e+38
0.28506461 -0.21681583 1.8560001 -2.6884226e+38
0.29263484 -0.21867077 1.8720001 -2.6483383e+38
0.30092785 -0.22099254 1.8920001 -2.6884758e+38
0.30900559 -0.22308023 1.9100001 -2.3684185e+38
0 0 0 -1.7014118e+38
0 0 0 -1.7014118e+38
0 0 0 -1.7014118e+38
0 0 0 -1.7014118e+38
0 0 0 -1.7014118e+38
0 0 0 -1.7014118e+38
0 0 0 -1.7014118e+38
0 0 0 -1.7014118e+38
0 0 0 -1.7014118e+38
0 0 0 -1.7014118e+38
-0.064012714 -0.23320326 1.9470001 -2.7155814e+38
-0.058154408 -0.23117058 1.9300001 -2.4884651e+38
-0.052526161 -0.22973646 1.9180001 -2.3949498e+38
-0.047086813 -0.22890089 1.9110001 -2.4216386e+38
-0.041707609 -0.22818479 1.9050001 -2.4483274e+38
-0.036380343 -0.22758816 1.9000001 -2.4616718e+38
-0.031080399 -0.22699122 1.8950001 -2.4883608e+38
-0.025821438 -0.22651371 1.891 -2.4750164e+38
-0.020595258 -0.22615571 1.8880001 -2.4883608e+38
-0.015385475 -0.22579741 1.8850001 -2.4483276e+38
-0.010197523 -0.22555859 1.8830001 -2.3816056e+38
-0.0050178487 -0.22519968 1.8800001 -2.2481615e+38
0.00014552282 -0.22508001 1.8790001 -2.1681482e+38
0.0053005763 -0.2248403 1.8770001 -2.1680965e+38
0.010450193 -0.22472005 1.876 -2.2081297e+38
0.015602593 -0.2247193 1.876 -2.2481633e+38
0.020743867 -0.22459845 1.8750001 -2.2348189e+38
0.025893372 -0.2245971 1.8750001 -2.301541e+38
0.031009663 -0.22435586 1.8730001 -2.2748521e+38
0.036153451 -0.22435391 1.8730001 -2.2881965e+38
0.041297089 -0.22435163 1.8730001 -2.2748521e+38
0.046490159 -0.22458866 1.8750001 -2.2748521e+38
0.051694021 -0.22482535 1.8770001 -2.301541e+38
0.05690866 -0.22506174 1.8790001 -2.2748523e+38
0.062101033 -0.22517811 1.8800001 -2.2748523e+38
0.067334428 -0.22541389 1.8820001 -2.2881968e+38
0.072655573 -0.22588892 1.886 -2.2347676e+38
0.077915862 -0.22612411 1.8880001 -2.2347676e+38
0.083274864 -0.22659855 1.8920001 -2.1948386e+38
0.088702247 -0.2271924 1.8970001 -2.1814944e+38
0.094255745 -0.22802548 1.904 -2.1282215e+38
0.0997428 -0.22861871 1.909 -2.0881367e+38
0.10492697 -0.22849311 1.9080001 -1.9947774e+38
0.10958559 -0.22728945 1.8980001 -2.0480504e+38
0.1138865 -0.22548681 1.8830001 -2.2080788e+38
0.11829431 -0.22404322 1.8710001 -2.2348191e+38
0.12296569 -0.22319816 1.8640001 -2.2880919e+38
0.12787302 -0.22283183 1.8610001 -2.3147807e+38
0.13276343 -0.22246526 1.858 -2.3415212e+38
0.13748845 -0.22185898 1.853 -2.3815545e+38
0.14195472 -0.22089328 1.845 -2.3548656e+38
0.14661562 -0.22028658 1.84 -2.3815545e+38
0.15116611 -0.21955992 1.8340001 -2.3147807e+38
0.15610899 -0.21943164 1.8330001 -2.3147807e+38
0.16069418 -0.21882428 1.8280001 -2.1546478e+38
0.16561396 -0.21869557 1.8270001 -2.1413034e+38
0.17034088 -0.21832719 1.8240001 -2.1679922e+38
0.17524298 -0.21819796 1.8230001 -2.301488e+38
0.18004008 -0.21794882 1.8210001 -2.301488e+38
0.18482558 -0.21769948 1.8190001 -2.3682096e+38
0.18970382 -0.2175696 1.8180001 -2.3548652e+38
0.19457591 -0.21743949 1.817 -2.3014876e+38
0.19944184 -0.21730918 1.8160001 -2.2881432e+38
0.20430157 -0.21717864 1.8150001 -2.2348698e+38
0.20915513 -0.21704793 1.8140001 -2.1014264e+38
0.21423854 -0.21715626 1.8150001 -2.1413551e+38
0.21944749 -0.21738401 1.817 -2.168044e+38
0.22454312 -0.21749189 1.8180001 -2.1546996e+38
0.22964351 -0.21759957 1.8190001 -2.2214216e+38
0.23449054 -0.21746777 1.8180001 -2.3281768e+38
0.23959483 -0.21757503 1.8190001 -2.4349317e+38
0.24470378 -0.21768206 1.8200001 -2.4482761e+38
0.25022897 -0.21814768 1.8240001 -2.4882566e+38
0.25549537 -0.21837386 1.8260001 -2.4749122e+38
0.26091453 -0.21871944 1.8290001 -2.5014965e+38
0.26649463 -0.21918432 1.8330001 -2.5415297e+38
0.27298453 -0.22036642 1.8430001 -2.5548741e+38
0.27922651 -0.22130907 1.8510001 -2.6617338e+38
0.28597203 -0.22261007 1.8620001 -2.6882665e+38
0.29324576 -0.22426939 1.876 -2.6217006e+38
0.30170843 -0.2267651 1.8970001 -2.5818248e+38
0.30931413 -0.22854312 1.9120001 -2.4885182e+38
0 0 0 -1.7014118e+38
0 0 0 -1.7014118e+38
0 0 0 -1.7014118e+38
0 0 0 -1.7014118e+38
0 0 0 -1.7014118e+38
0 0 0 -1.7014118e+38
0 0 0 -1.7014118e+38
0 0 0 -1.7014118e+38
0 0 0 -1.7014118e+38
0 0 0 -1.7014118e+38
0 0 0 -1.7014118e+38
-0.064304851 -0.23963889 1.9560001 -2.6755482e+38
-0.058241393 -0.23682465 1.9330001 -2.5686357e+38
-0.052523088 -0.23499016 1.9180001 -2.5151007e+38
-0.047084048 -0.23413546 1.9110001 -2.5017565e+38
-0.041748945 -0.23364802 1.9070001 -2.4082942e+38
-0.036454793 -0.23328276 1.904 -2.3816054e+38
-0.03114417 -0.23267217 1.899 -2.3816056e+38
-0.025874538 -0.23218377 1.8950001 -2.5017052e+38
-0.020648586 -0.23194011 1.8930001 -2.4883608e+38
-0.015417214 -0.23145106 1.8890001 -2.3682096e+38
-0.010213168 -0.23108423 1.886 -2.3416251e+38
-0.0050202217 -0.23047206 1.881 -2.3816583e+38
0.00014559169 -0.23034969 1.8800001 -2.3816587e+38
0.0053030881 -0.23010448 1.8780001 -2.3683143e+38
0.010466288 -0.23022653 1.8790001 -2.3549699e+38
0.015618308 -0.23010324 1.8780001 -2.3948989e+38
0.02076477 -0.22997962 1.8770001 -2.3948989e+38
0.02589185 -0.2297332 1.8750001 -2.3815545e+38
0.031007839 -0.22948647 1.8730001 -2.3815545e+38
0.036151327 -0.22948447 1.8730001 -2.36821e+38
0.04131671 -0.22960468 1.8740001 -2.3548656e+38
0.046512224 -0.22984712 1.876 -2.3414695e+38
0.051718537 -0.23008928 1.8780001 -2.3147807e+38
0.056935616 -0.23033108 1.8800001 -2.2747475e+38
0.062130425 -0.23045006 1.881 -2.2080255e+38
0.067366265 -0.23069128 1.8830001 -2.2213703e+38
0.072651334 -0.23105469 1.886 -2.1812853e+38
0.077911332 -0.2312953 1.8880001 -2.1812853e+38
0.083314039 -0.23190309 1.8930001 -2.1680456e+38
0.088650346 -0.23226555 1.8960001 -2.1680456e+38
0.094250277 -0.23324019 1.904 -2.1280653e+38
0.099789284 -0.23396952 1.9100001 -2.0614994e+38
0.10514086 -0.23420851 1.9120001 -1.9680886e+38
0.10992567 -0.23322232 1.904 -1.9814326e+38
0.11412185 -0.23113349 1.8870001 -2.2482163e+38
0.11835074 -0.22928947 1.8720001 -2.2748523e+38
0.12295865 -0.22830264 1.8640001 -2.2881436e+38
0.12793443 -0.22805044 1.8620001 -2.3281764e+38
0.13275585 -0.22755302 1.858 -2.3549168e+38
0.13740644 -0.22681047 1.8520001 -2.39495e+38
0.14186974 -0.22582273 1.8440001 -2.4215345e+38
0.14660731 -0.22532462 1.84 -2.4081901e+38
0.15140486 -0.22494878 1.8370001 -2.421483e+38
0.15635571 -0.22481759 1.8360001 -2.4081386e+38
0.16103677 -0.2243188 1.8320001 -2.4082429e+38
0.16587663 -0.22406468 1.83 -2.4082429e+38
0.17061155 -0.22368793 1.8270001 -2.4482761e+38
0.17552161 -0.22355577 1.8260001 -2.3683139e+38
0.18042555 -0.22342338 1.825 -2.3549695e+38
0.18522182 -0.22316836 1.8230001 -2.381554e+38
0.19000645 -0.22291315 1.8210001 -2.3948985e+38
0.19477944 -0.22265767 1.8190001 -2.381554e+38
0.1996506 -0.2225244 1.8180001 -2.3682096e+38
0.20451561 -0.22239092 1.817 -2.4349317e+38
0.20937441 -0.22225726 1.8160001 -2.4349317e+38
0.21434507 -0.22224572 1.8160001 -2.4082429e+38
0.21955651 -0.22247872 1.8180001 -2.4749649e+38
0.22465467 -0.22258914 1.8190001 -2.4483276e+38
0.22988376 -0.22282165 1.8210001 -2.4883608e+38
0.2348651 -0.22280927 1.8210001 -2.4882566e+38
0.24010909 -0.22304134 1.8230001 -2.4749122e+38
0.24522878 -0.22315086 1.8240001 -2.4615675e+38
0.25062746 -0.22350481 1.8270001 -2.5415297e+38
0.25576198 -0.22361392 1.8280001 -2.5014961e+38
0.26118639 -0.22396742 1.8310001 -2.5281849e+38
0.26706257 -0.22468764 1.8370001 -2.541581e+38
0.2737112 -0.2260191 1.848 -2.6215958e+38
0.27996656 -0.22698332 1.8560001 -2.6616294e+38
