# .PCD v0.7 - Point Cloud Data file format
VERSION 0.7
FIELDS x y z rgb
SIZE 4 4 4 4
TYPE F F F F
COUNT 1 1 1 1
WIDTH 1016
HEIGHT 1
VIEWPOINT 0 0 0 1 0 0 0
POINTS 1016
DATA ascii
-0.078227907 0.47698361 1.7910001 -1.91539e+38
-0.072143629 0.4692665 1.7620001 -2.0354374e+38
-0.066179551 0.46128261 1.7320001 -1.9821113e+38
-0.060876012 0.45702666 1.7160001 -1.7818409e+38
-0.05588901 0.45463467 1.7070001 -2.0353846e+38
-0.050981086 0.45250854 1.6990001 -1.835167e+38
-0.046225864 0.45144737 1.6950001 -1.8484587e+38
-0.041516941 0.45065206 1.692 -1.8618031e+38
-0.03684612 0.45012274 1.6900001 -1.928369e+38
-0.032128941 0.44879401 1.6850001 -1.9283694e+38
-0.027406357 0.44693214 1.6780001 -1.9016805e+38
-0.022776378 0.44613522 1.6750001 -1.8883361e+38
-0.01816275 0.44533792 1.6720001 -1.8749917e+38
-0.013581739 0.44507298 1.6710001 -1.8749917e+38
-0.0090061612 0.44480756 1.6700001 -1.8883361e+38
-0.004436031 0.44454175 1.669 -1.8883361e+38
0.00012871796 0.44454199 1.669 -1.8749917e+38
0.004690655 0.44427541 1.6680001 -1.8883361e+38
0.0092526563 0.44427481 1.6680001 -1.8883361e+38
0.013822917 0.4445402 1.669 -1.8883361e+38
0.018398607 0.44480512 1.6700001 -1.8350628e+38
0.02297972 0.4450697 1.6710001 -1.8617516e+38
0.027533267 0.44480118 1.6700001 -1.875096e+38
0.03200439 0.44346693 1.6650001 -1.8884404e+38
0.03649199 0.44266489 1.6620001 -1.875096e+38
0.041111227 0.44346061 1.6650001 -1.9151292e+38
0.045829058 0.44505495 1.6710001 -1.941818e+38
0.050609734 0.44691521 1.6780001 -1.8617516e+38
0.055362761 0.44824234 1.6830001 -1.8617516e+38
0.060107376 0.44930276 1.687 -1.8884406e+38
0.064988799 0.45116174 1.6940001 -1.8750962e+38
0.069702841 0.45168868 1.6960001 -1.835063e+38
0.074427634 0.45221519 1.6980001 -1.8482512e+38
0.079209745 0.4530077 1.7010001 -1.8615956e+38
0.084451757 0.45619655 1.7130001 -1.9149732e+38
0.089707129 0.45911863 1.7240001 -1.8083742e+38
0.095131956 0.4625729 1.7370001 -1.795134e+38
0.10091512 0.46735814 1.7550001 -1.7015676e+38
-0.077710345 0.46896237 1.779 -2.0621262e+38
-0.071699336 0.46158761 1.751 -2.0087486e+38
-0.066032335 0.45553032 1.728 -1.9553182e+38
-0.060774773 0.45158148 1.7130001 -1.8352185e+38
-0.055762809 0.4489502 1.7030001 -1.9284736e+38
-0.050895423 0.44710943 1.6960001 -1.8617516e+38
-0.046175282 0.44632268 1.6930001 -1.875096e+38
-0.041495968 0.44579923 1.6910001 -1.9016805e+38
-0.036783874 0.44474804 1.687 -1.9684026e+38
-0.032074496 0.44343284 1.682 -1.8883361e+38
-0.027359711 0.44158995 1.6750001 -1.8883361e+38
-0.022764741 0.44132847 1.674 -1.8883361e+38
-0.018142587 0.4402757 1.6700001 -1.9016805e+38
-0.01357478 0.44027707 1.6700001 -1.8749917e+38
-0.009006938 0.44027799 1.6700001 -1.8883361e+38
-0.0044390722 0.44027859 1.6700001 -1.87494e+38
0.00012872905 0.44001514 1.669 -1.8883361e+38
0.0046882471 0.43948764 1.6670001 -1.8749917e+38
0.0092423595 0.43922347 1.6660001 -1.8882844e+38
0.01380754 0.43948603 1.6670001 -1.8484072e+38
0.018389175 0.44001195 1.669 -1.875096e+38
0.022967948 0.44027382 1.6700001 -1.875096e+38
0.027502662 0.43974435 1.6680001 -1.8617516e+38
0.031930249 0.4378964 1.6610001 -1.8884404e+38
0.036407288 0.43710253 1.6580001 -1.875096e+38
0.041015986 0.43789011 1.6610001 -1.8617516e+38
0.045778118 0.43999535 1.669 -1.9284736e+38
0.050614066 0.44236392 1.6780001 -1.9551624e+38
0.055367496 0.44367748 1.6830001 -1.8883361e+38
0.060112499 0.44472703 1.687 -1.8617518e+38
0.064917594 0.4460398 1.692 -1.8617518e+38
0.069708765 0.44708851 1.6960001 -1.8484074e+38
0.074433953 0.44760966 1.6980001 -1.835063e+38
0.079263017 0.44865754 1.702 -1.8217186e+38
0.084409587 0.45128664 1.7120001 -1.8882844e+38
0.089662649 0.4541789 1.723 -1.8617518e+38
0.094975628 0.45707068 1.7340001 -1.8083742e+38
0.10069355 0.4615435 1.751 -1.8084784e+38
0.10746799 0.47023311 1.784 -1.7015676e+38
-0.083742142 0.47065195 1.8040001 -1.9287344e+38
-0.077585906 0.46335372 1.7760001 -2.088815e+38
-0.071664497 0.45657673 1.7500001 -1.9821113e+38
-0.066037968 0.45084271 1.728 -1.9686624e+38
-0.060779966 0.44693455 1.7130001 -1.8884919e+38
-0.055734832 0.4440695 1.702 -1.8884404e+38
-0.05086977 0.44224769 1.6950001 -1.8350628e+38
-0.046151966 0.44146916 1.692 -1.875096e+38
-0.041474994 0.44095108 1.6900001 -1.8617516e+38
-0.036765233 0.43991077 1.6860001 -1.9417138e+38
-0.032058187 0.43860912 1.6810001 -1.8617516e+38
-0.027394738 0.43756798 1.677 -1.8749917e+38
-0.022766702 0.43678734 1.674 -1.8749917e+38
-0.018144151 0.43574545 1.6700001 -1.8883361e+38
-0.013567823 0.4354859 1.669 -1.8749917e+38
-0.0090023223 0.43548685 1.669 -1.8615956e+38
-0.0044394555 0.4357484 1.6700001 -1.9016288e+38
0.00012874018 0.43548766 1.669 -1.8882844e+38
0.0046886522 0.43496561 1.6670001 -1.8615956e+38
0.0092487046 0.43496495 1.6670001 -1.87494e+38
0.013808734 0.43496403 1.6670001 -1.8484074e+38
0.018390762 0.43548447 1.669 -1.8617516e+38
0.022956172 0.43548262 1.669 -1.875096e+38
0.027505031 0.43521959 1.6680001 -1.8884404e+38
0.031932995 0.43339056 1.6610001 -1.8617516e+38
0.036388461 0.43234393 1.6570001 -1.8884404e+38
0.040970117 0.4328624 1.659 -1.8751475e+38
0.045754619 0.43520692 1.6680001 -1.9017848e+38
0.050588235 0.43755105 1.677 -1.9818512e+38
0.055339333 0.43885103 1.682 -1.8217184e+38
0.060046367 0.43962881 1.6850001 -1.8484074e+38
0.064846396 0.44092801 1.6900001 -1.8750962e+38
0.069673598 0.4422268 1.6950001 -1.835063e+38
0.074396439 0.4427425 1.697 -1.835063e+38
0.07917659 0.44351861 1.7 -1.8217186e+38
0.084318109 0.44612059 1.71 -1.8750962e+38
0.089566134 0.44898301 1.7210001 -1.9284738e+38
0.0948193 0.45158407 1.7310001 -1.8083742e+38
0.10029943 0.45496729 1.7440001 -1.795134e+38
0.10675406 0.46226305 1.7720001 -1.7952383e+38
-0.083842099 0.46627364 1.8060001 -1.8753047e+38
-0.077679887 0.45905143 1.7780001 -2.0488333e+38
-0.071711563 0.45208675 1.751 -1.9953512e+38
-0.066043615 0.4461543 1.728 -1.9819026e+38
-0.060785174 0.44228685 1.7130001 -1.8884919e+38
-0.055706866 0.43919343 1.7010001 -1.9017848e+38
-0.050874136 0.43764883 1.6950001 -1.8617516e+38
-0.046128657 0.43662024 1.6910001 -1.8617516e+38
-0.041454021 0.43610761 1.6890001 -1.875096e+38
-0.036702976 0.43456173 1.6830001 -1.9017848e+38
-0.032022808 0.43353182 1.6790001 -1.8484072e+38
-0.027348092 0.43224335 1.674 -1.8617516e+38
-0.02275507 0.43198735 1.6730001 -1.9016805e+38
-0.01814572 0.43121445 1.6700001 -1.8883361e+38
-0.013577125 0.43121585 1.6700001 -1.87494e+38
-0.0089977067 0.43070039 1.6680001 -1.9149732e+38
-0.0044371807 0.43095911 1.669 -1.9016288e+38
0.00012867418 0.43070117 1.6680001 -1.87494e+38
0.0046890574 0.43044269 1.6670001 -1.8882844e+38
0.0092495047 0.43044209 1.6670001 -1.835063e+38
0.013809928 0.43044117 1.6670001 -1.8484074e+38
0.018381331 0.43069795 1.6680001 -1.8617516e+38
0.0229444 0.43069616 1.6680001 -1.8617516e+38
0.027474424 0.4301776 1.6660001 -1.8884404e+38
0.031935748 0.42888394 1.6610001 -1.875096e+38
0.036369633 0.42758998 1.6560001 -1.8884919e+38
0.040924247 0.42784485 1.6570001 -1.9151807e+38
0.045621388 0.42939034 1.6630001 -1.9018363e+38
0.050471906 0.43196827 1.6730001 -1.9685583e+38
0.055278271 0.43377104 1.6800001 -1.8618031e+38
0.060015872 0.43479893 1.6840001 -1.8484072e+38
0.064813562 0.43608457 1.6890001 -1.8750962e+38
0.069679536 0.43762794 1.6950001 -1.835063e+38
0.074446611 0.43839636 1.6980001 -1.8217186e+38
0.079183318 0.43890616 1.7 -1.7950298e+38
0.084177323 0.44070652 1.7070001 -1.8484074e+38
0.089521661 0.44405541 1.72 -1.9284738e+38
0.094772518 0.44662932 1.7300001 -1.7816854e+38
0.10013532 0.44946086 1.7410001 -1.8084782e+38
0.10622077 0.45513174 1.7630001 -1.9153377e+38
-0.089771576 0.46647471 1.8260001 nan
-0.083338521 0.4585627 1.7950001 -2.1021596e+38
-0.077555425 0.45346013 1.7750001 -1.9954557e+38
-0.071635775 0.44682425 1.7490001 -1.9419736e+38
-0.066011041 0.44120964 1.7270001 -1.9151805e+38
-0.060754895 0.43738297 1.7120001 -1.8618031e+38
-0.055711649 0.43457758 1.7010001 -1.9017848e+38
-0.05087851 0.43304926 1.6950001 -1.8617516e+38
-0.046132628 0.43203151 1.6910001 -1.8617516e+38
-0.041433044 0.43126875 1.6880001 -1.9151292e+38
-0.036662519 0.42948368 1.6810001 -1.8884404e+38
-0.032006498 0.42872021 1.6780001 -1.875096e+38
-0.027350457 0.42770076 1.674 -1.875096e+38
-0.022757037 0.42744747 1.6730001 -1.8749917e+38
-0.018158158 0.42693824 1.6710001 -1.8749917e+38
-0.013586433 0.42693961 1.6710001 -1.8615956e+38
-0.0089984862 0.42617404 1.6680001 -1.8882844e+38
-0.004429589 0.42566365 1.6660001 -1.87494e+38
0.00012845387 0.4254083 1.6650001 -1.835063e+38
0.0046838373 0.4254081 1.6650001 -1.8484074e+38
0.0092447568 0.42566302 1.6660001 -1.8617518e+38
0.013811122 0.42591751 1.6670001 -1.8484074e+38
0.018371901 0.42591611 1.6670001 -1.8484072e+38
0.022932628 0.42591438 1.6670001 -1.875096e+38
0.027460303 0.42540115 1.6650001 -1.8884404e+38
0.031919278 0.42412111 1.6600001 -1.8751475e+38
0.036372773 0.42309621 1.6560001 -1.8884919e+38
0.040853672 0.42258185 1.654 -1.9151807e+38
0.045488138 0.42360014 1.6580001 -1.9285251e+38
0.050295211 0.42589539 1.6670001 -1.9418695e+38
0.055217206 0.42870119 1.6780001 -1.9151807e+38
0.060021017 0.43022916 1.6840001 -1.8484072e+38
0.064857483 0.43175668 1.6900001 -1.8484072e+38
0.069685489 0.43302828 1.6950001 -1.8617518e+38
0.074496806 0.43404403 1.6990001 -1.8484074e+38
0.079190053 0.43429294 1.7 -1.8217186e+38
0.084184468 0.43607432 1.7070001 -1.8217186e+38
0.089425139 0.43887696 1.7180001 -1.8884406e+38
0.094670951 0.44142374 1.728 -1.8217186e+38
0.099971198 0.44396999 1.738 -1.768445e+38
0.10586815 0.44881484 1.7570001 -1.9153377e+38
0.11287656 0.45774615 1.7920001 -1.7818939e+38
-0.088795871 0.45646384 1.8060001 -2.5025439e+38
-0.08306703 0.45217443 1.789 -2.0621262e+38
-0.077343568 0.44737893 1.7700001 -2.0353846e+38
-0.071559973 0.44157177 1.7470001 -1.9286294e+38
-0.066016696 0.43652245 1.7270001 -1.9018363e+38
-0.060760107 0.43273646 1.7120001 -1.8484072e+38
-0.055683684 0.42970821 1.7 -1.875096e+38
-0.050882891 0.42844898 1.6950001 -1.8617516e+38
-0.046109315 0.42718923 1.6900001 -1.875096e+38
-0.041362975 0.42592913 1.6850001 -1.9284736e+38
-0.036600251 0.42416304 1.6780001 -1.8617516e+38
-0.031952035 0.42340764 1.6750001 -1.875096e+38
-0.027320143 0.42265189 1.6720001 -1.8617516e+38
-0.022731798 0.42240128 1.6710001 -1.8617516e+38
-0.018137993 0.42189747 1.669 -1.875096e+38
-0.013571345 0.42189881 1.669 -1.835063e+38
-0.0089938706 0.42139423 1.6670001 -1.8484074e+38
-0.0044273133 0.42088929 1.6650001 -1.8617518e+38
0.00012838784 0.42063668 1.664 -1.8484074e+38
0.0046842434 0.42088929 1.6650001 -1.8484074e+38
0.009240008 0.42088863 1.6650001 -1.8617518e+38
0.013804033 0.42114043 1.6660001 -1.8617518e+38
0.018362472 0.42113903 1.6660001 -1.875096e+38
0.022907095 0.42088446 1.6650001 -1.8484072e+38
0.027413193 0.42012393 1.6620001 -1.8883361e+38
0.031902805 0.41936299 1.659 -1.9018363e+38
0.036353946 0.418349 1.6550001 -1.8884919e+38
0.040807791 0.41758728 1.6520001 -1.9018363e+38
0.045354865 0.41783634 1.6530001 -1.8752516e+38
0.050148677 0.42010725 1.6620001 -1.9019404e+38
0.055123217 0.42338869 1.6750001 -1.9285251e+38
0.060026169 0.4256587 1.6840001 -1.9018363e+38
0.064901419 0.42742267 1.6910001 -1.875096e+38
0.069773674 0.42893347 1.697 -1.8484074e+38
0.074634716 0.43019113 1.702 -1.8615956e+38
0.079336554 0.4304373 1.7030001 -1.8217186e+38
0.084240936 0.43169409 1.7080001 -1.8349068e+38
0.089432724 0.43421417 1.7180001 -1.8882844e+38
0.094733752 0.43698654 1.7290001 -1.8217186e+38
0.10003715 0.4395057 1.7390001 -1.7551006e+38
0.10569629 0.44328803 1.7540001 -1.9286821e+38
0.11250807 0.45136616 1.7860001 -1.8753045e+38
-0.088262528 0.44881099 1.7950001 -1.8219269e+38
-0.082424 0.44381753 1.7750001 -2.0221445e+38
-0.076956861 0.4403238 1.761 -1.9953514e+38
-0.071361266 0.43557924 1.7420001 -1.9418695e+38
-0.06606058 0.43208453 1.728 -1.8751475e+38
-0.060800809 0.42833915 1.7130001 -1.8884404e+38
-0.055721223 0.42534354 1.7010001 -1.8617516e+38
-0.050887268 0.42384776 1.6950001 -1.8618031e+38
-0.046086006 0.4223516 1.6890001 -1.875096e+38
-0.041317444 0.42085502 1.6830001 -1.9151292e+38
-0.036581598 0.41935796 1.677 -1.8617516e+38
-0.031954799 0.41886085 1.6750001 -1.8617516e+38
-0.027338846 0.41836324 1.6730001 -1.8617516e+38
-0.02272016 0.41761518 1.6700001 -1.8484072e+38
-0.018139564 0.41736689 1.669 -1.8617516e+38
-0.01356439 0.41711825 1.6680001 -1.8484074e+38
-0.0089838579 0.41636896 1.6650001 -1.835063e+38
-0.0044223783 0.41586941 1.6630001 -1.8484074e+38
0.00012832182 0.41586962 1.6630001 -1.8484074e+38
0.0046790224 0.41586941 1.6630001 -1.8750962e+38
0.0092352582 0.41611883 1.664 -1.8617518e+38
0.013788654 0.41611785 1.664 -1.8484074e+38
0.018353038 0.41636652 1.6650001 -1.8484072e+38
0.022881562 0.41586462 1.6630001 -1.8617516e+38
0.027399074 0.41536236 1.6610001 -1.9016805e+38
0.031867102 0.41435951 1.6570001 -1.875096e+38
0.03631315 0.4133563 1.6530001 -1.8884919e+38
0.040761907 0.41260275 1.6500001 -1.9151807e+38
0.045276456 0.41259906 1.6500001 -1.888596e+38
0.050032284 0.4145954 1.6580001 -1.9286292e+38
0.055029221 0.41809168 1.6720001 -1.9819026e+38
0.060031317 0.42108741 1.6840001 -1.8484587e+38
0.06494537 0.42308244 1.692 -1.8484587e+38
0.069820762 0.42457694 1.6980001 -1.8617516e+38
0.074728794 0.42607102 1.7040001 -1.87494e+38
0.079436496 0.42631444 1.705 -1.8482512e+38
0.084297426 0.4273077 1.7090001 -1.8215624e+38
0.089388251 0.42930058 1.7170001 -1.8884406e+38
0.094741762 0.43229309 1.7290001 -1.8083742e+38
0.10010313 0.43503508 1.7400001 -1.7951338e+38
0.10558464 0.43802661 1.7520001 -1.9152335e+38
0.11207651 0.44476783 1.779 -1.8486157e+38
-0.094218217 0.44887614 1.8150001 nan
-0.087925814 0.44220638 1.7880001 -1.9019933e+38
-0.082198814 0.43776181 1.7700001 -1.9954557e+38
-0.076657496 0.43381137 1.7540001 -2.021936e+38
-0.071285442 0.43035513 1.7400001 -1.9552139e+38
-0.066028014 0.42714566 1.7270001 -1.8751475e+38
-0.060841527 0.42393574 1.7140001 -1.9151807e+38
-0.055758774 0.42097268 1.702 -1.8617516e+38
-0.050951697 0.41974056 1.697 -1.8352185e+38
-0.046089977 0.41776597 1.6890001 -1.9151292e+38
-0.041321006 0.41628566 1.6830001 -1.9017848e+38
-0.036584757 0.41480494 1.677 -1.8484072e+38
-0.031938478 0.41406587 1.674 -1.8617516e+38
-0.027308529 0.41332638 1.6710001 -1.8484072e+38
-0.022708522 0.41283381 1.669 -1.8617516e+38
-0.018130267 0.41258824 1.6680001 -1.9017848e+38
-0.013557431 0.41234225 1.6670001 -1.8484072e+38
-0.0089846365 0.41184849 1.6650001 -1.8484074e+38
-0.0044254214 0.41160172 1.664 -1.8484074e+38
0.0001284101 0.41160193 1.664 -1.8617518e+38
0.0046794279 0.41135439 1.6630001 -1.8484074e+38
0.0092305085 0.41135374 1.6630001 -1.8617518e+38
0.013781564 0.41135278 1.6630001 -1.8750962e+38
0.018343601 0.41159871 1.664 -1.8617516e+38
0.022883542 0.41134959 1.6630001 -1.8617516e+38
0.027384946 0.41060534 1.6600001 -1.8884404e+38
0.031869855 0.4098607 1.6570001 -1.875096e+38
0.036316283 0.4088684 1.6530001 -1.8618031e+38
0.040765423 0.40812302 1.6500001 -1.8884919e+38
0.045225471 0.4076246 1.6480001 -1.8752516e+38
0.049915876 0.40910459 1.654 -1.9019404e+38
0.054836456 0.41206816 1.6660001 -1.9819026e+38
0.059929512 0.41577333 1.6810001 -1.9151807e+38
0.06487415 0.41799396 1.6900001 -1.8884919e+38
0.069826737 0.41996688 1.6980001 -1.8484072e+38
0.074779034 0.42169198 1.705 -1.8615956e+38
0.079489857 0.42193276 1.7060001 -1.8615956e+38
0.084304594 0.42266777 1.7090001 -1.7816854e+38
0.089343764 0.4243916 1.7160001 -1.8750962e+38
0.094640173 0.4271042 1.7270001 -1.8083742e+38
0.10005404 0.43006372 1.7390001 -1.7951338e+38
0.105473 0.43277535 1.7500001 -1.9285779e+38
0.11151888 0.43771222 1.7700001 -1.8619601e+38
0.11806829 0.44413221 1.7960001 -1.9553711e+38
-0.093655139 0.441257 1.8040001 -2.5825582e+38
-0.087884098 0.43710646 1.7870001 -1.9954041e+38
-0.082112946 0.43246627 1.7680001 -1.9953514e+38
-0.07662034 0.42880386 1.7530001 -1.9952472e+38
-0.071332507 0.4258748 1.7410001 -1.9151807e+38
-0.066148378 0.42318988 1.7300001 -1.9018363e+38
-0.06091775 0.41977063 1.7160001 -1.9285251e+38
-0.055829089 0.4168402 1.7040001 -1.8751475e+38
-0.050956078 0.41513237 1.697 -1.8618031e+38
-0.046121236 0.41342416 1.6900001 -1.9285251e+38
-0.041349128 0.41196018 1.6840001 -1.8618031e+38
-0.036631551 0.41074038 1.6790001 -1.8751475e+38
-0.03196032 0.4097648 1.6750001 -1.8617516e+38
-0.027343579 0.40927809 1.6730001 -1.875096e+38
-0.022710484 0.40830168 1.669 -1.8617516e+38
-0.018142706 0.40830347 1.669 -1.875096e+38
-0.013550472 0.4075709 1.6660001 -1.8617516e+38
-0.008985416 0.40732726 1.6650001 -1.8617516e+38
-0.0044204858 0.40659395 1.6620001 -1.8484074e+38
0.00012826687 0.40659407 1.6620001 -1.8617518e+38
0.0046770191 0.40659389 1.6620001 -1.8617518e+38
0.0092313094 0.40683794 1.6630001 -1.8617518e+38
0.013782758 0.40683693 1.6630001 -1.8617518e+38
0.018334167 0.40683553 1.6630001 -1.8617516e+38
0.022857999 0.40634447 1.6610001 -1.8617516e+38
0.027370816 0.405853 1.659 -1.875096e+38
0.031814903 0.40462729 1.654 -1.9018363e+38
0.036297448 0.40413511 1.6520001 -1.8884919e+38
0.040719524 0.40315324 1.6480001 -1.8884919e+38
0.045201924 0.4029049 1.6470001 -1.8751473e+38
0.049829621 0.40387928 1.651 -1.9285249e+38
0.054742418 0.40681034 1.6630001 -1.9286292e+38
0.059792034 0.41023013 1.677 -1.9018361e+38
0.06480293 0.41291562 1.6880001 -1.9018363e+38
0.069709323 0.41462216 1.6950001 -1.8618031e+38
0.074653827 0.41632831 1.702 -1.8882844e+38
0.07940343 0.41681096 1.7040001 -1.8482512e+38
0.084213085 0.41753784 1.7070001 -1.8215624e+38
0.089299262 0.41948724 1.715 -1.8484074e+38
0.094593383 0.42217004 1.7260001 -1.8217186e+38
0.10006248 0.42534149 1.7390001 -1.7951338e+38
0.10536132 0.4275341 1.748 -1.9285779e+38
0.11115017 0.43143833 1.7640001 -1.915285e+38
0.1174207 0.43680945 1.7860001 -2.0221445e+38
-0.093714997 0.43659934 1.8050001 -1.7151718e+38
-0.087940753 0.43249503 1.7880001 -1.9952999e+38
-0.082212821 0.42814821 1.7700001 -1.9686626e+38
-0.076758005 0.42476848 1.756 -1.9685581e+38
-0.071502507 0.42211393 1.7450001 -1.9285251e+38
-0.066306993 0.41945893 1.7340001 -1.9018363e+38
-0.061029483 0.4158358 1.7190001 -1.9151807e+38
-0.055964954 0.41317984 1.7080001 -1.8618031e+38
-0.051050555 0.41124916 1.7 -1.9018363e+38
-0.046207089 0.40955997 1.6930001 -1.9418695e+38
-0.041352693 0.40738654 1.6840001 -1.8618031e+38
-0.036591075 0.40569648 1.677 -1.9018363e+38
-0.031905834 0.40448979 1.6720001 -1.9017848e+38
-0.027313249 0.40425044 1.6710001 -1.8618558e+38
-0.022712452 0.40376878 1.669 -1.8484072e+38
-0.018133406 0.4035286 1.6680001 -1.875096e+38
-0.013551647 0.40304613 1.6660001 -1.8484072e+38
-0.0089861928 0.40280515 1.6650001 -1.8484072e+38
-0.0044235289 0.40232193 1.6630001 -1.8617516e+38
0.000128278 0.40208018 1.6620001 -1.8617516e+38
0.0046774242 0.40207997 1.6620001 -1.8484072e+38
0.0092321085 0.40232131 1.6630001 -1.8617516e+38
0.013783951 0.40232033 1.6630001 -1.8484072e+38
0.018335756 0.40231892 1.6630001 -1.8617516e+38
0.022846213 0.40159133 1.6600001 -1.8484072e+38
0.027340183 0.40086341 1.6570001 -1.9017848e+38
0.031779177 0.39965126 1.6520001 -1.9018363e+38
0.036234658 0.39892256 1.649 -1.9018363e+38
0.040698323 0.39843541 1.6470001 -1.8884919e+38
0.045178369 0.39818981 1.646 -1.8751473e+38
0.04977354 0.39891145 1.649 -1.9285249e+38
0.054582518 0.40108418 1.6580001 -1.9418693e+38
0.059618879 0.40446594 1.6720001 -1.9953512e+38
0.064654909 0.4073635 1.6840001 -1.8751473e+38
0.069591887 0.40929294 1.692 -1.9151807e+38
0.074528597 0.41098011 1.6990001 -1.8884406e+38
0.079410203 0.41218302 1.7040001 -1.8615956e+38
0.084220245 0.4129017 1.7070001 -1.8215624e+38
0.089254759 0.41458753 1.7140001 -1.835063e+38
0.094491765 0.41699859 1.7240001 -1.8484074e+38
0.099955834 0.42013475 1.7370001 -1.8217184e+38
0.10537019 0.42278671 1.748 -1.8618558e+38
0.11103347 0.42616373 1.7620001 -1.8885962e+38
0.11710179 0.43074954 1.7810001 -1.9554224e+38
-0.093722939 0.43169618 1.8050001 -1.7016714e+38
-0.087997399 0.42787716 1.789 -1.9953514e+38
-0.082312725 0.4238185 1.7720001 -1.9820068e+38
-0.076895699 0.42071596 1.7590001 -1.9285249e+38
-0.071672529 0.41833046 1.7490001 -1.9418695e+38
-0.066542126 0.41618374 1.7400001 -1.8751475e+38
-0.061212242 0.41236222 1.7240001 -1.9018363e+38
-0.056100834 0.40949696 1.7120001 -1.8884919e+38
-0.05108498 0.40687042 1.7010001 -1.8884919e+38
-0.046211064 0.40496099 1.6930001 -1.9285251e+38
-0.041356254 0.40281203 1.6840001 -1.8751475e+38
-0.03661605 0.40138015 1.6780001 -1.8751475e+38
-0.031927671 0.40018708 1.6730001 -1.9017848e+38
-0.027331956 0.39995041 1.6720001 -1.9017848e+38
-0.022728024 0.3994742 1.6700001 -1.8884404e+38
-0.018134974 0.39899755 1.6680001 -1.8617516e+38
-0.013536547 0.39804205 1.664 -1.875096e+38
-0.0089815734 0.39804307 1.664 -1.875096e+38
-0.0044239112 0.39780444 1.6630001 -1.8617516e+38
0.0001282891 0.39756542 1.6620001 -1.875096e+38
0.0046750149 0.39732602 1.6610001 -1.8617516e+38
0.009227355 0.39756459 1.6620001 -1.8617516e+38
0.013768565 0.39732441 1.6610001 -1.8617516e+38
0.018304259 0.39708379 1.6600001 -1.8617516e+38
0.022806896 0.39636442 1.6570001 -1.875096e+38
0.027309543 0.39588386 1.6550001 -1.9016801e+38
0.031743445 0.39468524 1.6500001 -1.9150245e+38
0.036171854 0.39372554 1.646 -1.928369e+38
0.040627688 0.39324382 1.6440001 -1.9417134e+38
0.045099907 0.39300096 1.6430001 -1.9018363e+38
0.049747631 0.39419284 1.6480001 -1.9151805e+38
0.054554272 0.39634109 1.6570001 -1.9018361e+38
0.059552666 0.39944568 1.6700001 -2.0219358e+38
0.064583644 0.40231064 1.682 -1.8485627e+38
0.069556706 0.40445757 1.6910001 -1.8751475e+38
0.074534945 0.40636486 1.6990001 -1.8884404e+38
0.079370342 0.40731502 1.7030001 -1.8484074e+38
0.084178053 0.40802559 1.7060001 -1.8215624e+38
0.089262329 0.4099316 1.7140001 -1.8349068e+38
0.094499744 0.41231546 1.7240001 -1.8484074e+38
0.099964261 0.41541633 1.7370001 -1.8217186e+38
0.10537905 0.41803837 1.748 -1.8752002e+38
0.11097976 0.42113826 1.761 -1.915285e+38
0.11684855 0.42495504 1.7770001 -1.9420778e+38
0.12335245 0.43068436 1.8010001 -1.9554224e+38
-0.093730882 0.4267922 1.8050001 -1.7017234e+38
-0.088004872 0.42301664 1.789 -1.982007e+38
-0.082459085 0.4197135 1.7750001 -1.9820068e+38
-0.076989688 0.41640985 1.761 -1.9685581e+38
-0.07163766 0.41334212 1.748 -1.9285249e+38
-0.066586055 0.41169277 1.7410001 -1.8884919e+38
-0.061395027 0.40886059 1.7290001 -1.8618031e+38
-0.056236729 0.40579146 1.7160001 -1.9151807e+38
-0.051119395 0.40248537 1.702 -1.8885962e+38
-0.046133146 0.39965183 1.6900001 -1.9018363e+38
-0.04131069 0.3977637 1.682 -1.9018363e+38
-0.036553733 0.39611167 1.6750001 -1.9285251e+38
-0.031911336 0.39540517 1.6720001 -1.8751475e+38
-0.027285267 0.39469823 1.669 -1.875096e+38
-0.022702765 0.39446393 1.6680001 -1.8484072e+38
-0.018114794 0.39399272 1.6660001 -1.8484072e+38
-0.013537718 0.39352107 1.664 -1.8617516e+38
-0.0089769522 0.3932856 1.6630001 -1.8617516e+38
-0.0044242935 0.39328614 1.6630001 -1.8617516e+38
0.00012822298 0.39281335 1.6610001 -1.875096e+38
0.0046726037 0.39257666 1.6600001 -1.8617516e+38
0.0092114946 0.39233956 1.659 -1.8617516e+38
0.013753174 0.39233857 1.659 -1.8617516e+38
0.018283784 0.39210072 1.6580001 -1.8617516e+38
0.02282263 0.39209893 1.6580001 -1.8617516e+38
0.027311895 0.39138728 1.6550001 -1.8883361e+38
0.03176542 0.39043882 1.651 -1.9150245e+38
0.036152992 0.38901696 1.6450001 -1.9016801e+38
0.040606473 0.38854074 1.6430001 -1.928369e+38
0.045021426 0.38782758 1.6400001 -1.8884919e+38
0.049631145 0.38876942 1.6440001 -1.8751473e+38
0.054361396 0.39042029 1.651 -1.9552137e+38
0.059415117 0.39396256 1.6660001 -1.995247e+38
0.064473957 0.3970314 1.6790001 -1.9285249e+38
0.069603771 0.40009969 1.692 -1.8884917e+38
0.074541301 0.40174884 1.6990001 -1.8884404e+38
0.079470307 0.40316102 1.705 -1.8484074e+38
0.084283881 0.40386346 1.7080001 -1.8083742e+38
0.089321956 0.40551129 1.715 -1.7816854e+38
0.094562545 0.40786797 1.725 -1.835063e+38
0.1000878 0.41116998 1.7390001 -1.8083742e+38
0.1054482 0.41352576 1.7490001 -1.8752002e+38
0.11098906 0.41635385 1.761 -1.8885962e+38
0.11639798 0.4184722 1.7700001 -1.8753558e+38
0.12260928 0.42319071 1.7900001 -1.9153892e+38
-0.10070062 0.43052718 1.8420001 nan
-0.093375266 0.42025119 1.7980001 -1.7015676e+38
-0.087864734 0.41745406 1.7860001 -1.955318e+38
-0.082466081 0.41489014 1.7750001 -1.9552137e+38
-0.07699623 0.41162446 1.761 -1.9552137e+38
-0.071684748 0.40882584 1.7490001 -1.8884919e+38
-0.066668235 0.40742925 1.743 -1.8751475e+38
-0.061506808 0.40486345 1.7320001 -1.8618031e+38
-0.056372635 0.40206337 1.72 -1.9285251e+38
-0.051123772 0.39786032 1.702 -1.9286292e+38
-0.046109803 0.39482564 1.6890001 -1.9019404e+38
-0.041314241 0.39319298 1.682 -1.888596e+38
-0.036622353 0.3922613 1.6780001 -1.8752518e+38
-0.031971347 0.39156291 1.6750001 -1.8751475e+38
-0.027320318 0.39063039 1.6710001 -1.875096e+38
-0.02270472 0.3899312 1.6680001 -1.875096e+38
-0.018127227 0.38969919 1.6670001 -1.8350628e+38
-0.013547021 0.38923302 1.6650001 -1.8617516e+38
-0.008983125 0.38900024 1.664 -1.8884404e+38
-0.0044246758 0.38876706 1.6630001 -1.875096e+38
0.00012823407 0.3882997 1.6610001 -1.8617516e+38
0.0046701916 0.3878319 1.659 -1.8617516e+38
0.0092067365 0.38759756 1.6580001 -1.8617516e+38
0.013737779 0.38736281 1.6570001 -1.875096e+38
0.018263306 0.38712767 1.6560001 -1.8884404e+38
0.022810828 0.38735962 1.6570001 -1.8884404e+38
0.027297745 0.38665617 1.654 -1.9017848e+38
0.03174891 0.38571855 1.6500001 -1.928369e+38
0.03613412 0.38431302 1.6440001 -1.9150245e+38
0.040585242 0.3838422 1.6420001 -1.9150245e+38
0.045052741 0.38360474 1.641 -1.9151807e+38
0.049605209 0.38406825 1.6430001 -1.9018363e+38
0.054300193 0.38546634 1.649 -1.9685581e+38
0.059313193 0.38873407 1.6630001 -1.995247e+38
0.064479463 0.39246884 1.6790001 -1.9685581e+38
0.069650844 0.39573562 1.6930001 -1.8351143e+38
0.074591517 0.39736572 1.7 -1.9284736e+38
0.079477049 0.39852789 1.705 -1.8884406e+38
0.084241681 0.39898846 1.7070001 -1.8217186e+38
0.089225337 0.4003835 1.7130001 -1.7816854e+38
0.09446086 0.40271303 1.723 -1.835063e+38
0.099923529 0.40574333 1.7360001 -1.8484074e+38
0.10545705 0.40877306 1.7490001 -1.941818e+38
0.11099833 0.41156855 1.761 -1.9151807e+38
0.11634194 0.41342878 1.7690001 -1.9151805e+38
0.12220845 0.41692442 1.784 -1.915285e+38
0.12922527 0.42392501 1.8140001 -2.0219887e+38
-0.099834308 0.42182466 1.8260001 nan
-0.093331203 0.41513342 1.7970001 -1.7018272e+38
-0.087970577 0.41306195 1.7880001 -1.9419736e+38
-0.082565993 0.41052791 1.7770001 -1.9685581e+38
-0.077133946 0.40753135 1.7640001 -1.9418693e+38
-0.071772821 0.40453434 1.751 -1.8618031e+38
-0.066712163 0.40292293 1.7440001 -1.8751475e+38
-0.061618607 0.40084913 1.7350001 -1.8484587e+38
-0.056475788 0.39808169 1.723 -1.9285251e+38
-0.051218268 0.39392754 1.705 -1.955318e+38
-0.046113748 0.39023501 1.6890001 -1.888596e+38
-0.041342344 0.38885245 1.6830001 -1.8752516e+38
-0.036603671 0.3874695 1.677 -1.8885962e+38
-0.031955004 0.38677931 1.674 -1.8751475e+38
-0.027306313 0.38585761 1.6700001 -1.8884404e+38
-0.022706673 0.38539767 1.6680001 -1.8884404e+38
-0.01812879 0.38516837 1.6670001 -1.8617516e+38
-0.013548188 0.38470763 1.6650001 -1.8617516e+38
-0.0089785 0.3842465 1.6630001 -1.8884404e+38
-0.0044197352 0.38378495 1.6610001 -1.8617516e+38
0.00012809067 0.38332301 1.659 -1.8617516e+38
0.004667779 0.38309178 1.6580001 -1.875096e+38
0.0092019765 0.38286012 1.6570001 -1.875096e+38
0.013738962 0.38285911 1.6570001 -1.8617516e+38
0.018253848 0.38239565 1.6550001 -1.875096e+38
0.022771487 0.38216281 1.654 -1.875096e+38
0.027234068 0.38123646 1.6500001 -1.875096e+38
0.03171315 0.38077182 1.6480001 -1.8884919e+38
0.036115244 0.3796137 1.6430001 -1.9016801e+38
0.040564001 0.37914827 1.641 -1.9016801e+38
0.045001686 0.37868252 1.6390001 -1.8884919e+38
0.049518872 0.37890956 1.6400001 -1.9151807e+38
0.054140165 0.37982926 1.6440001 -1.9552137e+38
0.05910423 0.38282797 1.6570001 -1.9685581e+38
0.064292915 0.38675028 1.674 -2.0219358e+38
0.069533326 0.39044109 1.6900001 -1.8351143e+38
0.074466199 0.3920522 1.697 -1.8484587e+38
0.079483777 0.39389387 1.705 -1.941818e+38
0.084248796 0.39434901 1.7070001 -1.8217186e+38
0.089284956 0.39595881 1.7140001 -1.8083742e+38
0.094359167 0.39756817 1.7210001 -1.8217186e+38
0.099931926 0.40102512 1.7360001 -1.8350628e+38
0.10540557 0.40378851 1.748 -1.941818e+38
0.11094458 0.40655145 1.7600001 -1.9018363e+38
0.11622009 0.40815896 1.7670001 -1.8884917e+38
0.12194458 0.41115189 1.7800001 -1.9286294e+38
0.12866603 0.41714704 1.8060001 -1.9552667e+38
-0.099569306 0.41571945 1.8210001 nan
-0.093183242 0.40956357 1.794 -1.728516e+38
-0.087879576 0.40774482 1.7860001 -1.9152848e+38
-0.082572974 0.40569729 1.7770001 -1.9685581e+38
-0.07727167 0.40342098 1.7670001 -1.9151805e+38
-0.071860902 0.40023094 1.7530001 -1.8884919e+38
-0.066794351 0.39863864 1.7460001 -1.8484072e+38
-0.061694883 0.39658925 1.7370001 -1.8484072e+38
-0.056644503 0.39453936 1.728 -1.9151807e+38
-0.051312771 0.38997751 1.7080001 -1.9286294e+38
-0.046226908 0.3865568 1.6930001 -1.8752516e+38
-0.041395016 0.38473395 1.6850001 -1.9018363e+38
-0.03667229 0.38359562 1.6800001 -1.9018363e+38
-0.031976834 0.3824569 1.6750001 -1.8884919e+38
-0.027341364 0.38177446 1.6720001 -1.875096e+38
-0.022722235 0.38109156 1.669 -1.8484072e+38
-0.018130345 0.38063666 1.6670001 -1.875096e+38
-0.013541214 0.379953 1.664 -1.8617516e+38
-0.0089792712 0.37972566 1.6630001 -1.8884404e+38
-0.0044201147 0.37926954 1.6610001 -1.875096e+38
0.0001281789 0.37904137 1.6600001 -1.8617516e+38
0.0046681804 0.37858453 1.6580001 -1.8617516e+38
0.0092027672 0.37835559 1.6570001 -1.8484072e+38
0.013740142 0.37835461 1.6570001 -1.8617516e+38
0.018266445 0.37812489 1.6560001 -1.8484072e+38
0.022773443 0.37766644 1.654 -1.8884404e+38
0.027219895 0.37652263 1.649 -1.9018363e+38
0.031658135 0.37560683 1.6450001 -1.8884919e+38
0.036052383 0.37446222 1.6400001 -1.8884919e+38
0.040493309 0.37400234 1.6380001 -1.8751475e+38
0.044950616 0.37377036 1.6370001 -1.8884919e+38
0.049462702 0.37399465 1.6380001 -1.9018363e+38
0.054078914 0.37490353 1.6420001 -1.9151805e+38
0.058895227 0.37695357 1.651 -1.9552137e+38
0.064144738 0.38128638 1.6700001 -1.9819026e+38
0.069415793 0.385162 1.687 -1.9418695e+38
0.074516393 0.38766733 1.6980001 -1.9151807e+38
0.079490498 0.38925895 1.705 -1.9151292e+38
0.084354624 0.3901653 1.7090001 -1.8484074e+38
0.089240372 0.39107117 1.7130001 -1.7816854e+38
0.094367094 0.39288983 1.7210001 -1.8484074e+38
0.099767588 0.39562118 1.733 -1.8484072e+38
0.1054747 0.39926514 1.7490001 -1.9685068e+38
0.11095384 0.40176716 1.7600001 -1.9285251e+38
0.11649285 0.40426871 1.771 -1.8884917e+38
0.12209171 0.40676981 1.7820001 -1.9418695e+38
0.12853417 0.41178122 1.8040001 -1.9553182e+38
-0.099522963 0.41054279 1.8200001 nan
-0.093398854 0.40558824 1.7980001 -1.7818937e+38
-0.087985396 0.40334007 1.7880001 -1.8619072e+38
-0.082765833 0.40176815 1.7810001 -1.9418693e+38
-0.077365674 0.39906785 1.7690001 -1.9285251e+38
-0.071948975 0.3959159 1.7550001 -1.8884919e+38
-0.066914789 0.39456818 1.7490001 -1.8484072e+38
-0.061842207 0.39276886 1.7410001 -1.8484072e+38
-0.056780461 0.39074349 1.7320001 -1.8618031e+38
-0.051437322 0.38623604 1.7120001 -1.9819028e+38
-0.046340082 0.38285607 1.697 -1.9018361e+38
-0.041472256 0.3808293 1.6880001 -1.9018363e+38
-0.036675423 0.37902775 1.6800001 -1.9018363e+38
-0.031960476 0.37767699 1.674 -1.9018363e+38
-0.027327349 0.37700275 1.6710001 -1.875096e+38
-0.022724183 0.37655362 1.669 -1.8484072e+38
-0.018131899 0.37610415 1.6670001 -1.8617516e+38
-0.013534237 0.37520301 1.6630001 -1.8617516e+38
-0.0089692418 0.37475276 1.6610001 -1.875096e+38
-0.0044151712 0.37430209 1.659 -1.875096e+38
0.00012803546 0.37407666 1.6580001 -1.8484072e+38
0.0046629487 0.37362519 1.6560001 -1.8484072e+38
0.0091924472 0.37339899 1.6550001 -1.8617516e+38
0.013733028 0.37362364 1.6560001 -1.875096e+38
0.01826801 0.37362227 1.6560001 -1.8617516e+38
0.022775391 0.37316924 1.654 -1.9151292e+38
0.02718921 0.37158781 1.6470001 -1.9018363e+38
0.031622346 0.37068287 1.6430001 -1.9151807e+38
0.036033478 0.3697775 1.6390001 -1.8618031e+38
0.040472042 0.36932305 1.6370001 -1.8884919e+38
0.044899527 0.3688682 1.6350001 -1.9018363e+38
0.049376313 0.36886418 1.6350001 -1.9151807e+38
0.053918824 0.36931098 1.6370001 -1.9018361e+38
0.058650497 0.3708854 1.6440001 -1.9552137e+38
0.063766047 0.37448978 1.6600001 -1.9819026e+38
0.069174759 0.37922165 1.6810001 -1.995247e+38
0.074391022 0.38237387 1.6950001 -1.8884919e+38
0.079450585 0.38439772 1.7040001 -1.9151807e+38
0.084460445 0.38596985 1.7110001 -1.8750962e+38
0.089456275 0.38731608 1.7170001 -1.7950298e+38
0.094594344 0.38911295 1.725 -1.835063e+38
0.099948652 0.39158607 1.7360001 -1.8350628e+38
0.10554379 0.39473543 1.7500001 -1.941818e+38
0.11102611 0.39720759 1.761 -1.9285251e+38
0.11643673 0.39922813 1.7700001 -1.9151805e+38
0.12196478 0.40147382 1.7800001 -1.9019404e+38
0.12804596 0.40529773 1.7970001 -1.9153377e+38
0.13481173 0.41092539 1.8220001 -1.9420267e+38
-0.099257842 0.40447924 1.8150001 -3.276363e+38
-0.093302779 0.40025306 1.7960001 -1.8485116e+38
-0.087943569 0.3982549 1.7870001 -1.8618031e+38
-0.082819268 0.39714774 1.7820001 -1.9552137e+38
-0.077459663 0.39470291 1.771 -1.9151807e+38
-0.072078057 0.39181191 1.7580001 -1.9151807e+38
-0.067035235 0.39048049 1.7520001 -1.8617516e+38
-0.062025063 0.38914868 1.7460001 -1.8350628e+38
-0.056981985 0.38737065 1.738 -1.8484072e+38
-0.051652022 0.38314047 1.7190001 -1.9419738e+38
-0.04642595 0.37890977 1.7 -1.8884919e+38
-0.04150036 0.37646171 1.6890001 -1.9151807e+38
-0.036700383 0.37468192 1.6810001 -1.8884919e+38
-0.032001387 0.37357035 1.6760001 -1.8884919e+38
-0.027329678 0.3724584 1.6710001 -1.8617516e+38
-0.022712506 0.37179187 1.6680001 -1.875096e+38
-0.018111691 0.37112489 1.6650001 -1.8617516e+38
-0.013527255 0.37045756 1.6620001 -1.8484072e+38
-0.0089646075 0.37001273 1.6600001 -1.8484072e+38
-0.0044128872 0.36956751 1.6580001 -1.875096e+38
0.00012804641 0.36956772 1.6580001 -1.8617516e+38
0.0046605309 0.36889878 1.6550001 -1.8484072e+38
0.0091876779 0.36867532 1.654 -1.8484072e+38
0.013725906 0.3688972 1.6550001 -1.8884404e+38
0.018269569 0.36911875 1.6560001 -1.8617516e+38
0.022777336 0.36867118 1.654 -1.8751475e+38
0.027191527 0.36710879 1.6470001 -1.9018363e+38
0.031605795 0.3659918 1.6420001 -1.8884919e+38
0.036014564 0.3650974 1.6380001 -1.8751475e+38
0.040426038 0.36442548 1.6350001 -1.9018363e+38
0.044903342 0.36442184 1.6350001 -1.8884919e+38
0.049350299 0.36419493 1.6340001 -1.8884919e+38
0.053857513 0.36441344 1.6350001 -1.9018361e+38
0.058477078 0.36530024 1.6390001 -1.9285249e+38
0.063617773 0.369084 1.6560001 -1.9152848e+38
0.06901598 0.37375876 1.677 -2.02204e+38
0.074441187 0.3779873 1.6960001 -1.9018361e+38
0.079457261 0.37976378 1.7040001 -1.9018363e+38
0.084566265 0.38176268 1.7130001 -1.8884404e+38
0.089620069 0.38331538 1.72 -1.8217186e+38
0.094821624 0.38531342 1.7290001 -1.8217186e+38
0.10001456 0.38708809 1.7370001 -1.8350628e+38
0.10555258 0.38997656 1.7500001 -1.9551624e+38
0.11097227 0.392196 1.7600001 -1.9151807e+38
0.11631479 0.3939693 1.7680001 -1.9151805e+38
0.12156369 0.39529645 1.774 -1.9019406e+38
0.12741515 0.39840576 1.7880001 -1.8753045e+38
0.13400881 0.40351987 1.8110001 -1.9954041e+38
-0.099047348 0.39866212 1.8110001 -2.9827861e+38
-0.093310565 0.3953681 1.7960001 -1.861856e+38
-0.087852493 0.39295411 1.7850001 -1.8618031e+38
-0.082826205 0.39230081 1.7820001 -1.9285251e+38
-0.077466175 0.3898859 1.771 -1.9150245e+38
-0.072207123 0.38769066 1.761 -1.9285251e+38
-0.067079149 0.38593528 1.7530001 -1.8484072e+38
-0.062172409 0.38528025 1.7500001 -1.8350628e+38
-0.057117961 0.38352397 1.7420001 -1.8084782e+38
-0.051866747 0.38000596 1.7260001 -1.9419223e+38
-0.046511821 0.3749463 1.7030001 -1.9019406e+38
-0.041553024 0.37230799 1.6910001 -1.9151805e+38
-0.036703497 0.37010959 1.6810001 -1.9285251e+38
-0.031985011 0.36879143 1.6750001 -1.9018363e+38
-0.027299291 0.36747289 1.669 -1.875096e+38
-0.022700818 0.36703467 1.6670001 -1.8617516e+38
-0.018102353 0.36637586 1.664 -1.875096e+38
-0.013520267 0.3657167 1.6610001 -1.8617516e+38
-0.0089545688 0.36505711 1.6580001 -1.8617516e+38
-0.0044106008 0.3648375 1.6570001 -1.8617516e+38
0.00012798008 0.36483768 1.6570001 -1.8617516e+38
0.0046581118 0.36417696 1.654 -1.8617516e+38
0.0091773495 0.36373597 1.6520001 -1.8617516e+38
0.013702192 0.36373502 1.6520001 -1.8617516e+38
0.01822699 0.36373365 1.6520001 -1.9018363e+38
0.022724187 0.36329156 1.6500001 -1.9151807e+38
0.027160821 0.36218858 1.6450001 -1.9151807e+38
0.031569984 0.36108521 1.6400001 -1.9018363e+38
0.035973642 0.36020166 1.636 -1.9017848e+38
0.040380009 0.35953793 1.6330001 -1.9018363e+38
0.044852216 0.35953432 1.6330001 -1.8618031e+38
0.049294069 0.35931012 1.6320001 -1.8884919e+38
0.053763241 0.35930577 1.6320001 -1.9285249e+38
0.058374967 0.36018172 1.636 -1.9552137e+38
0.063354194 0.36303863 1.649 -1.9419736e+38
0.068733677 0.36765632 1.6700001 -1.9820068e+38
0.074140169 0.37183326 1.6890001 -1.9285249e+38
0.079463929 0.37512907 1.7040001 -1.9285251e+38
0.084622718 0.37732363 1.7140001 -1.9017848e+38
0.089783885 0.37929758 1.723 -1.8349585e+38
0.094829522 0.38061073 1.7290001 -1.8616473e+38
0.10008046 0.3825838 1.738 -1.8350628e+38
0.10556133 0.38521683 1.7500001 -1.9284736e+38
0.1110445 0.38762921 1.761 -1.8884919e+38
0.11619278 0.38872036 1.766 -1.8619072e+38
0.12143662 0.39003128 1.7720001 -1.8619074e+38
0.12714052 0.39266232 1.784 -1.875356e+38
0.13379776 0.39793405 1.8080001 -1.942078e+38
-0.099110268 0.39395288 1.812 -2.649176e+38
-0.093266368 0.39026478 1.7950001 -1.9285781e+38
-0.087859817 0.38809812 1.7850001 -1.875096e+38
-0.082786649 0.38723555 1.7810001 -1.9151807e+38
-0.077603899 0.38572025 1.774 -1.9151807e+38
-0.072295196 0.38333479 1.7630001 -1.9285251e+38
-0.067161322 0.38160115 1.7550001 -1.8617516e+38
-0.062213171 0.38073683 1.751 -1.808374e+38
-0.057253938 0.37965462 1.7460001 -1.8084782e+38
-0.051991332 0.37618011 1.7300001 -1.9152335e+38
-0.046625003 0.37118301 1.7070001 -1.8885962e+38
-0.041556541 0.36770755 1.6910001 -1.9285251e+38
-0.0367066 0.36553633 1.6810001 -1.9018363e+38
-0.032006819 0.36445194 1.6760001 -1.9151807e+38
-0.027317964 0.36314976 1.6700001 -1.875096e+38
-0.022702746 0.36249951 1.6670001 -1.875096e+38
-0.018093012 0.36163142 1.6630001 -1.8884404e+38
-0.013505133 0.36076289 1.659 -1.8617516e+38
-0.008949928 0.36032894 1.6570001 -1.875096e+38
-0.0044109751 0.36032948 1.6570001 -1.8484072e+38
0.00012806819 0.36054718 1.6580001 -1.8484072e+38
0.004661324 0.35989457 1.6550001 -1.8617516e+38
0.009178129 0.3592416 1.6520001 -1.8484072e+38
0.013686764 0.35880572 1.6500001 -1.9017848e+38
0.018217502 0.35902181 1.651 -1.9151807e+38
0.022698566 0.35836774 1.6480001 -1.9285251e+38
0.027130095 0.35727835 1.6430001 -1.8884919e+38
0.031534154 0.3561886 1.6380001 -1.9151807e+38
0.035954691 0.35553336 1.6350001 -1.8884404e+38
0.040383421 0.3550953 1.6330001 -1.9018363e+38
0.044856001 0.35509169 1.6330001 -1.8884919e+38
0.049268022 0.35465279 1.631 -1.9018363e+38
0.05373482 0.35464847 1.631 -1.8751473e+38
0.058308505 0.35529608 1.6340001 -1.9018361e+38
0.063205831 0.35768282 1.6450001 -1.9419736e+38
0.068410158 0.36137372 1.6620001 -1.955318e+38
0.073926881 0.36615124 1.6840001 -1.995247e+38
0.079377279 0.37005851 1.702 -1.9552139e+38
0.084679142 0.37287816 1.715 -1.9151292e+38
0.089791358 0.3746103 1.723 -1.8349585e+38
0.094892249 0.37612456 1.7300001 -1.8616473e+38
0.10003117 0.37763837 1.7370001 -1.8350628e+38
0.10557006 0.38045615 1.7500001 -1.9151292e+38
0.11099059 0.38262123 1.7600001 -1.9018363e+38
0.11626815 0.38413367 1.7670001 -1.9018363e+38
0.12144656 0.38521084 1.7720001 -1.8885962e+38
0.12700838 0.38737458 1.7820001 -1.8486672e+38
0.13336462 0.39171156 1.802 -1.9020448e+38
-0.099501386 0.3905254 1.8190001 -2.0754708e+38
-0.093429998 0.38602477 1.7980001 -1.9152337e+38
-0.088014796 0.38388529 1.7880001 -1.8484072e+38
-0.08288651 0.38281888 1.7830001 -1.8751475e+38
-0.077741608 0.38153729 1.7770001 -1.9018363e+38
-0.072465278 0.37939647 1.7670001 -1.9151807e+38
-0.067243487 0.37725517 1.7570001 -1.9017848e+38
-0.062218383 0.37597227 1.751 -1.8083742e+38
-0.057258748 0.37490368 1.7460001 -1.808374e+38
-0.052145977 0.37254632 1.7350001 -1.8484072e+38
-0.046738185 0.36739701 1.7110001 -1.9285251e+38
-0.041584611 0.36332092 1.692 -1.9285249e+38
-0.036709692 0.36096218 1.6810001 -1.9018363e+38
-0.03200952 0.35989144 1.6760001 -1.8484587e+38
-0.027336631 0.35882029 1.6710001 -1.875096e+38
-0.022718282 0.35817814 1.6680001 -1.8617516e+38
-0.018105423 0.35732096 1.664 -1.875096e+38
-0.013522558 0.35667807 1.6610001 -1.8484072e+38
-0.0089560878 0.35603485 1.6580001 -1.8484072e+38
-0.0044140108 0.35603538 1.6580001 -1.8617516e+38
0.00012800178 0.3558208 1.6570001 -1.875096e+38
0.0046589016 0.35517636 1.654 -1.8484072e+38
0.0091733485 0.35453156 1.651 -1.875096e+38
0.013687923 0.35431591 1.6500001 -1.8751475e+38
0.018196974 0.35409981 1.649 -1.9151807e+38
0.022659162 0.35323918 1.6450001 -1.8751475e+38
0.027082847 0.3521634 1.6400001 -1.9418695e+38
0.031498302 0.35130197 1.636 -1.9018363e+38
0.035935733 0.35086966 1.6340001 -1.8751475e+38
0.04036209 0.35043702 1.6320001 -1.8884919e+38
0.04477736 0.35000396 1.6300001 -1.8751475e+38
0.04921174 0.3497853 1.6290001 -1.9151807e+38
0.053673431 0.34978104 1.6290001 -1.9151807e+38
0.058206331 0.35020575 1.631 -1.9151805e+38
0.062942132 0.3517037 1.6380001 -1.888596e+38
0.068045393 0.35491896 1.6530001 -1.9152848e+38
0.073581815 0.35985139 1.6760001 -2.0219358e+38
0.079197332 0.36456862 1.6980001 -1.9418693e+38
0.084587418 0.36778232 1.7130001 -1.9551624e+38
0.089746684 0.36970741 1.7220001 -1.808374e+38
0.094790384 0.37098792 1.728 -1.8483029e+38
0.10009701 0.3731268 1.738 -1.8217184e+38
0.10557875 0.3756946 1.7500001 -1.9284736e+38
0.11118891 0.37847653 1.7630001 -1.9018363e+38
0.11640928 0.37975526 1.7690001 -1.8752518e+38
0.12166213 0.38103357 1.7750001 -1.8885962e+38
0.12709001 0.38274074 1.7830001 -1.8619074e+38
0.13322742 0.38637936 1.8000001 -1.9020448e+38
0.14022499 0.39216387 1.8270001 -1.9554224e+38
-0.099618994 0.38599902 1.8210001 nan
-0.093541645 0.38155553 1.8000001 -1.9285781e+38
-0.088071302 0.37923124 1.789 -1.875096e+38
-0.082939871 0.37817839 1.784 -1.8751475e+38
-0.077835575 0.37712514 1.779 -1.9018363e+38
-0.07263536 0.37543547 1.771 -1.9151807e+38
-0.067325637 0.37289736 1.7590001 -1.9284736e+38
-0.062223576 0.37120679 1.751 -1.835063e+38
-0.05719794 0.36972782 1.7440001 -1.8083742e+38
-0.052180398 0.36803636 1.7360001 -1.8350628e+38
-0.046960656 0.36443645 1.7190001 -1.9552139e+38
-0.041710995 0.35977599 1.697 -1.9285249e+38
-0.036800135 0.35723516 1.6850001 -1.9018363e+38
-0.032031309 0.35554203 1.677 -1.8884919e+38
-0.027355287 0.35448447 1.6720001 -1.8617516e+38
-0.022706576 0.35342649 1.6670001 -1.8884404e+38
-0.018106945 0.35279214 1.664 -1.875096e+38
-0.013523696 0.35215744 1.6610001 -1.8617516e+38
-0.0089676464 0.35194638 1.6600001 -1.8617516e+38
-0.0044143829 0.35152289 1.6580001 -1.8617516e+38
0.00012801256 0.35131106 1.6570001 -1.8484072e+38
0.0046592942 0.35067481 1.654 -1.8484072e+38
0.009185235 0.35046223 1.6530001 -1.8617516e+38
0.013697371 0.35003722 1.651 -1.8884919e+38
0.018198503 0.34961182 1.649 -1.9018363e+38
0.022647291 0.34855005 1.6440001 -1.8751475e+38
0.027085124 0.34769997 1.6400001 -1.8884919e+38
0.03150095 0.34684941 1.636 -1.9018363e+38
0.035938747 0.34642258 1.6340001 -1.9018363e+38
0.040316012 0.3455714 1.6300001 -1.9151807e+38
0.044753641 0.34535581 1.6290001 -1.9018363e+38
0.049185645 0.34513983 1.628 -1.8751475e+38
0.053644963 0.34513554 1.628 -1.9151807e+38
0.058139812 0.3453429 1.6290001 -1.9018361e+38
0.062793657 0.34639782 1.6340001 -1.9019404e+38
0.067762874 0.34893632 1.646 -1.9820068e+38
0.073236674 0.35359424 1.6680001 -2.02204e+38
0.078924023 0.3586756 1.692 -2.0085914e+38
0.084545039 0.36290845 1.7120001 -1.9418695e+38
0.089754097 0.36502105 1.7220001 -1.808374e+38
0.094853051 0.36649725 1.7290001 -1.8616473e+38
0.10004764 0.36818498 1.7370001 -1.8350628e+38
0.10564774 0.37114403 1.751 -1.9017848e+38
0.11126108 0.37389064 1.7640001 -1.9017848e+38
0.11655039 0.37536502 1.771 -1.8619074e+38
0.12167202 0.37620315 1.7750001 -1.8352185e+38
0.12702903 0.37767667 1.7820001 -1.8352185e+38
0.13286808 0.38042134 1.7950001 -1.9153892e+38
0.14000602 0.38655636 1.8240001 -2.0088001e+38
-0.099955432 0.38229778 1.8270001 nan
-0.093757227 0.37749296 1.8040001 -1.9285781e+38
-0.088177033 0.37478009 1.7910001 -1.8484072e+38
-0.082993224 0.37353158 1.7850001 -1.8618031e+38
-0.077885762 0.3724919 1.7800001 -1.875096e+38
-0.072723418 0.37103325 1.7730001 -1.875096e+38
-0.067407779 0.3685278 1.761 -1.9283694e+38
-0.062228747 0.36644042 1.751 -1.87494e+38
-0.057202689 0.36498043 1.7440001 -1.8215624e+38
-0.052244861 0.36372933 1.738 -1.8215624e+38
-0.047128495 0.36101279 1.725 -1.941818e+38
-0.041886549 0.35662153 1.7040001 -1.9418695e+38
-0.036846895 0.35306695 1.687 -1.9151805e+38
-0.032053091 0.35118625 1.6780001 -1.9018363e+38
-0.027341215 0.3497237 1.6710001 -1.8751475e+38
-0.022722099 0.34909794 1.6680001 -1.875096e+38
-0.018119346 0.34847176 1.6650001 -1.875096e+38
-0.013541115 0.3480545 1.6630001 -1.8884404e+38
-0.008968397 0.34742758 1.6600001 -1.8617516e+38
-0.0044147531 0.34700951 1.6580001 -1.9017848e+38
0.00012794604 0.34659114 1.6560001 -1.8617516e+38
0.0046568676 0.34596303 1.6530001 -1.8884404e+38
0.0091804489 0.34575316 1.6520001 -1.8617516e+38
0.013690221 0.34533361 1.6500001 -1.9018363e+38
0.018166918 0.34449509 1.646 -1.9018363e+38
0.022607855 0.34344691 1.641 -1.8751475e+38
0.02703784 0.34260771 1.6370001 -1.9151807e+38
0.031465072 0.34197739 1.6340001 -1.9150245e+38
0.035897762 0.34155601 1.6320001 -1.9150245e+38
0.040344112 0.34134355 1.631 -1.9150245e+38
0.044867273 0.34175858 1.6330001 -1.9682979e+38
0.049431466 0.34238249 1.636 -1.9682979e+38
0.054011926 0.34300601 1.6390001 -1.9682979e+38
0.058537271 0.34321067 1.6400001 -1.9283694e+38
0.063106328 0.34362414 1.6420001 -1.9418695e+38
0.067850836 0.34487438 1.6480001 -1.9685583e+38
0.073110998 0.34842604 1.6650001 -2.021936e+38
0.078790598 0.35344213 1.6890001 -2.0753136e+38
0.084502615 0.35803911 1.7110001 -1.941818e+38
0.089761473 0.36033377 1.7220001 -1.8350628e+38
0.094805971 0.36158171 1.728 -1.808374e+38
0.10005584 0.36345696 1.7370001 -1.8217186e+38
0.10565636 0.36637795 1.751 -1.9151294e+38
0.11127014 0.36908922 1.7640001 -1.8884404e+38
0.11649405 0.37033534 1.7700001 -1.8485114e+38
0.12154479 0.37095344 1.7730001 -1.8485114e+38
0.12696801 0.37261716 1.7810001 -1.8752002e+38
0.13273074 0.37511727 1.7930001 -1.9153377e+38
0.13986374 0.3811734 1.8220001 -1.9954041e+38
-0.099963598 0.37732381 1.8270001 nan
-0.093764901 0.37258154 1.8040001 -1.9419225e+38
-0.088135034 0.36969751 1.7900001 -1.8617516e+38
-0.082907051 0.36825877 1.7830001 -1.8484072e+38
-0.07784842 0.36743918 1.779 -1.875096e+38
-0.072729424 0.36620614 1.7730001 -1.915025e+38
-0.067528196 0.36435294 1.7640001 -1.915025e+38
-0.062304981 0.36208627 1.7530001 -1.9149732e+38
-0.05733864 0.36105838 1.748 -1.8349068e+38
-0.052369453 0.35982361 1.7420001 -1.8215624e+38
-0.047323667 0.35776213 1.7320001 -1.8217184e+38
-0.042012949 0.35301495 1.7090001 -1.9551624e+38
-0.036893651 0.34888697 1.6890001 -1.9285251e+38
-0.032055762 0.34661758 1.6780001 -1.8618031e+38
-0.027343495 0.34517407 1.6710001 -1.9018363e+38
-0.02271037 0.34434989 1.6670001 -1.8884404e+38
-0.01813174 0.34414503 1.6660001 -1.875096e+38
-0.013542244 0.3435266 1.6630001 -1.8617516e+38
-0.0089745494 0.34311441 1.6610001 -1.8884404e+38
-0.004417784 0.34270182 1.659 -1.875096e+38
0.00012795672 0.34208235 1.6560001 -1.875096e+38
0.0046600741 0.34166896 1.654 -1.8617516e+38
0.0091812136 0.34125522 1.6520001 -1.875096e+38
0.013691365 0.34084114 1.6500001 -1.8884919e+38
0.018157396 0.33980694 1.6450001 -1.9151807e+38
0.022595964 0.33877242 1.6400001 -1.9418695e+38
0.027056612 0.33835724 1.6380001 -1.9018363e+38
0.031525467 0.33814824 1.6370001 -1.928369e+38
0.03605473 0.33855855 1.6390001 -1.9682979e+38
0.040644318 0.33938164 1.6430001 -1.9815381e+38
0.04533812 0.34082401 1.6500001 -1.9681937e+38
