# .PCD v0.7 - Point Cloud Data file format
VERSION 0.7
FIELDS x y z rgb
SIZE 4 4 4 4
TYPE F F F F
COUNT 1 1 1 1
WIDTH 1010
HEIGHT 1
VIEWPOINT 0 0 0 1 0 0 0
POINTS 1010
DATA ascii
-0.035987064 0.59043688 1.8900001 -1.9014716e+38
-0.030906949 0.5920015 1.8950001 -1.9414004e+38
-0.025758721 0.59262854 1.8970001 -2.421485e+38
-0.020610364 0.59356761 1.9000001 -2.5013939e+38
-0.015404994 0.5929442 1.8980001 -2.5279257e+38
-0.010210519 0.59232038 1.8960001 -2.6210751e+38
-0.0050163306 0.59044659 1.8900001 -2.7277257e+38
0.00014532515 0.58950955 1.8870001 -2.7677589e+38
0.005287786 0.58825976 1.8830001 -2.8211365e+38
0.010430544 0.5882591 1.8830001 -2.9012547e+38
0.015573279 0.58825809 1.8830001 -2.9012547e+38
0.020737989 0.58888149 1.8850001 -2.9277873e+38
0.025886109 0.58887959 1.8850001 -2.9144431e+38
0.031050641 0.58918977 1.886 -2.901203e+38
0.03620138 0.58918715 1.886 -2.9412362e+38
0.041373972 0.58949649 1.8870001 -2.901203e+38
0.046601254 0.59043026 1.8900001 -2.8611698e+38
0.051762663 0.59042645 1.8900001 -2.8478253e+38
0.056954078 0.59073454 1.891 -2.781208e+38
0.062052295 0.59010518 1.8890001 -2.7144859e+38
0.067175046 0.58978772 1.8880001 -2.7144342e+38
0.072368816 0.59009463 1.8890001 -2.6877454e+38
0.077649988 0.59102601 1.8920001 -2.6079394e+38
0.08303494 0.59258175 1.8970001 -2.5679589e+38
0.08867953 0.59569895 1.9070001 -2.5280304e+38
0.095166273 0.60381353 1.9330001 -2.755251e+38
-0.09261816 0.58433682 1.8870001 nan
-0.086863108 0.58031809 1.8740001 -1.7016714e+38
-0.081484213 0.57846659 1.868 -1.7017234e+38
-0.076424167 0.57878244 1.8690001 -1.7819452e+38
-0.071434818 0.57971722 1.8720001 -1.9019406e+38
-0.066570655 0.5818904 1.8790001 -1.9151807e+38
-0.061570026 0.58313417 1.8830001 -1.875096e+38
-0.05642755 0.58313876 1.8830001 -1.875096e+38
-0.051312193 0.5834527 1.8840001 -1.8617518e+38
-0.04616677 0.58345652 1.8840001 -1.8617518e+38
-0.041086569 0.58438909 1.8870001 -1.8484074e+38
-0.035951816 0.58470184 1.8880001 -1.8882319e+38
-0.030844139 0.58563358 1.891 -1.9414006e+38
-0.025706433 0.58625519 1.8930001 -1.9411921e+38
-0.020557748 0.58687639 1.8950001 -2.5548762e+38
-0.015389977 0.58718753 1.8960001 -2.5680636e+38
-0.010200555 0.58656913 1.8940001 -2.6879529e+38
-0.0050193812 0.58564061 1.891 -2.7278299e+38
0.00014541365 0.58471173 1.8880001 -2.8077921e+38
0.0052938201 0.58378243 1.8850001 -2.9012547e+38
0.010431367 0.58316243 1.8830001 -2.9279435e+38
0.015574508 0.58316141 1.8830001 -2.9279435e+38
0.02072862 0.58346963 1.8840001 -2.9277873e+38
0.025915619 0.5843969 1.8870001 -2.9411319e+38
0.031086022 0.58470434 1.8880001 -2.9145474e+38
0.036242623 0.5847016 1.8880001 -2.8878586e+38
0.041421078 0.58500826 1.8890001 -2.8745142e+38
0.046629567 0.58562422 1.891 -2.901203e+38
0.051821496 0.58592999 1.8920001 -2.8745142e+38
0.057048898 0.58654511 1.8940001 -2.8078968e+38
0.062188555 0.58623075 1.8930001 -2.7544674e+38
0.067358203 0.58622569 1.8930001 -2.7544674e+38
0.072527707 0.5862202 1.8930001 -2.7010898e+38
0.077820204 0.58714336 1.8960001 -2.6079394e+38
0.083304018 0.58930475 1.9030001 -2.6213365e+38
0.089290962 0.59456247 1.9200001 -2.8082629e+38
0.096601456 0.60756123 1.9620001 -2.9285175e+38
-0.11107454 0.56814647 1.8510001 nan
-0.10521891 0.56385767 1.8370001 -1.7017234e+38
-0.10020316 0.5638656 1.8370001 -1.8086861e+38
-0.095705383 0.56694275 1.8470001 -1.782049e+38
-0.090907358 0.56848478 1.8520001 -1.848667e+38
-0.085989133 0.56941265 1.8550001 -1.9554738e+38
-0.080923483 0.56941915 1.8550001 -1.9687139e+38
-0.075980328 0.57034618 1.858 -1.9019404e+38
-0.07105881 0.57157987 1.8620001 -1.9018361e+38
-0.06622158 0.5737341 1.8690001 -1.9018363e+38
-0.061280575 0.57527405 1.8740001 -1.8884919e+38
-0.056252193 0.57619959 1.8770001 -1.8617516e+38
-0.051180065 0.57681775 1.8790001 -1.8484072e+38
-0.046072401 0.57712871 1.8800001 -1.87494e+38
-0.041002732 0.57805312 1.8830001 -1.87494e+38
-0.035897534 0.57867008 1.8850001 -1.87494e+38
-0.030781342 0.57928669 1.8870001 -1.8748358e+38
-0.02561341 0.578982 1.886 -1.9146605e+38
-0.02048344 0.57959783 1.8880001 -1.9280556e+38
-0.015342496 0.58021325 1.8900001 -2.6482866e+38
-0.010185209 0.58052123 1.891 -2.6882147e+38
-0.0050144717 0.57990783 1.8890001 -2.7015056e+38
0.00014542523 0.57960111 1.8880001 -2.8479809e+38
0.0052998592 0.57929385 1.8870001 -2.8612728e+38
0.010443279 0.57867926 1.8850001 -2.9146504e+38
0.015584022 0.57837123 1.8840001 -2.8612728e+38
0.020752277 0.57898378 1.886 -2.8745655e+38
0.025931414 0.57959586 1.8880001 -2.8745659e+38
0.031104956 0.57990056 1.8890001 -2.8745659e+38
0.036283895 0.5802049 1.8900001 -2.9012547e+38
0.041468222 0.58050877 1.891 -2.9012547e+38
0.046682585 0.58111924 1.8930001 -2.9145991e+38
0.05185299 0.58111537 1.8930001 -2.9010985e+38
0.057113651 0.58203197 1.8960001 -2.8478258e+38
0.062357727 0.58264118 1.8980001 -2.8077925e+38
0.067577012 0.58294296 1.899 -2.8211895e+38
0.07280162 0.58324444 1.9000001 -2.7412792e+38
0.078154683 0.58446634 1.904 -2.7280391e+38
0.083748311 0.5872227 1.9130001 -2.5681159e+38
0.090228103 0.59550387 1.9400001 -2.6615797e+38
-0.11942292 0.55490273 1.8240001 -1.7820502e+38
-0.114443 0.55491179 1.8240001 -1.7687058e+38
-0.10910274 0.55309504 1.8180001 -2.0355414e+38
-0.10396688 0.55219066 1.8150001 -2.0088522e+38
-0.099065386 0.55250281 1.8160001 -2.0088001e+38
-0.094417341 0.55433589 1.8220001 -1.9687666e+38
-0.089638144 0.55556011 1.8260001 -1.9954555e+38
-0.084975995 0.55769676 1.8330001 -1.9954027e+38
-0.080275431 0.55983305 1.84 -1.9553695e+38
-0.07561826 0.56257755 1.8490001 -1.9952466e+38
-0.070720933 0.56380039 1.853 -1.9151805e+38
-0.065907925 0.56593573 1.8600001 -1.9151807e+38
-0.060991123 0.56746215 1.8650001 -1.8884919e+38
-0.056076836 0.56929237 1.8710001 -1.875096e+38
-0.05107519 0.57051384 1.8750001 -1.8617516e+38
-0.045978043 0.57082194 1.876 -1.8882844e+38
-0.040875345 0.57112974 1.8770001 -1.8882844e+38
-0.035786137 0.57174134 1.8790001 -1.8882844e+38
-0.030669615 0.57204831 1.8800001 -1.87494e+38
-0.025533974 0.57205057 1.8800001 -1.9014716e+38
-0.020409131 0.5723567 1.881 -1.9280049e+38
-0.0152869 0.57296675 1.8830001 -1.9678805e+38
-0.010153707 0.57357633 1.8850001 -2.7016642e+38
-0.0050095655 0.57418549 1.8870001 -2.7549885e+38
0.0001453599 0.57418567 1.8870001 -2.8614813e+38
0.0053030942 0.57448983 1.8880001 -2.8880658e+38
0.010449657 0.57388049 1.886 -2.8746172e+38
0.015601818 0.57387948 1.886 -2.8746172e+38
0.020753942 0.57387799 1.886 -2.8612211e+38
0.02591976 0.57418048 1.8870001 -2.8879103e+38
0.03109098 0.57448244 1.8880001 -2.8478771e+38
0.036305998 0.57539254 1.891 -2.8879103e+38
0.041515399 0.57599801 1.8930001 -2.9010985e+38
0.046735633 0.576603 1.8950001 -2.9144431e+38
0.051911909 0.576599 1.8950001 -2.8610655e+38
0.057238705 0.57811606 1.9000001 -2.887859e+38
0.06249411 0.57871979 1.9020001 -2.8745146e+38
0.067795902 0.57962739 1.9050001 -2.8346898e+38
0.073037304 0.57992613 1.9060001 -2.7547279e+38
0.078530312 0.58204991 1.9130001 -2.768125e+38
0.08449921 0.58721584 1.9300001 -2.7815751e+38
-0.12903735 0.54843682 1.8190001 -3.1432845e+38
-0.12304809 0.54392397 1.8040001 -1.7687062e+38
-0.11792619 0.54302877 1.8010001 -1.9820597e+38
-0.11307144 0.54333925 1.802 -2.0354889e+38
-0.10815098 0.54334795 1.802 -2.02204e+38
-0.1032303 0.5433563 1.802 -1.9820068e+38
-0.098363951 0.54366571 1.8030001 -1.9953512e+38
-0.093491942 0.54397482 1.8040001 -1.9553695e+38
-0.088663355 0.54458511 1.8060001 -1.9552137e+38
-0.083916388 0.54579812 1.8100001 -1.9685581e+38
-0.079409182 0.54882008 1.8200001 -1.9285249e+38
-0.074969888 0.55274647 1.8330001 -1.9418693e+38
-0.070383064 0.55606931 1.8440001 -1.9418693e+38
-0.065629691 0.5584873 1.8520001 -1.9285251e+38
-0.060734354 0.56000012 1.8570001 -1.9151807e+38
-0.055871524 0.56211579 1.8640001 -1.8884919e+38
-0.050943084 0.5639295 1.8700001 -1.8884404e+38
-0.045932725 0.56513965 1.8740001 -1.8749917e+38
-0.040813301 0.56514317 1.8740001 -1.8883361e+38
-0.035693791 0.56514627 1.8740001 -1.87494e+38
-0.030590516 0.56545055 1.8750001 -1.8882844e+38
-0.025495291 0.56605595 1.8770001 -1.87494e+38
-0.020389078 0.56666094 1.8790001 -1.8483029e+38
-0.01525566 0.56666237 1.8790001 -1.9546937e+38
-0.010132981 0.56726652 1.881 -1.9012637e+38
-0.0049993508 0.56787032 1.8830001 -2.7551994e+38
0.0001452946 0.56877524 1.886 -2.8083657e+38
0.0052979048 0.568775 1.886 -2.8614302e+38
0.010456045 0.569076 1.8870001 -2.9145991e+38
0.015611353 0.56907493 1.8870001 -2.9145991e+38
0.020777632 0.56937504 1.8880001 -2.901203e+38
0.025949327 0.56967467 1.8890001 -2.8745142e+38
0.031126432 0.56997401 1.8900001 -2.8745659e+38
0.036347333 0.57087594 1.8930001 -2.8879103e+38
0.041584544 0.57177752 1.8960001 -2.9277873e+38
0.046813391 0.57237715 1.8980001 -2.9277873e+38
0.051998269 0.57237309 1.8980001 -2.9277875e+38
0.057273421 0.57327342 1.9010001 -2.8745146e+38
0.062564828 0.57417321 1.904 -2.9012034e+38
0.067908101 0.57537425 1.9080001 -2.8480345e+38
0.073311381 0.57687634 1.9130001 -2.834847e+38
0.078947105 0.57988584 1.9230001 -2.8083152e+38
-0.13401359 0.54350036 1.8190001 -1.8355327e+38
-0.12769942 0.53783345 1.8000001 -1.9154947e+38
-0.12230731 0.53575158 1.7930001 -1.9287344e+38
-0.11714961 0.53456575 1.789 -1.9554224e+38
-0.11232727 0.53487349 1.7900001 -1.982007e+38
-0.10743923 0.53488219 1.7900001 -1.9686624e+38
-0.10266553 0.53548819 1.7920001 -2.0085914e+38
-0.097717009 0.53519726 1.7910001 -1.9819026e+38
-0.092825577 0.53520489 1.7910001 -1.9151805e+38
-0.087983042 0.5355109 1.7920001 -1.9285249e+38
-0.083366685 0.53731078 1.7980001 -1.8751473e+38
-0.078761019 0.53940916 1.8050001 -1.8618029e+38
-0.074280538 0.54270262 1.8160001 -1.9150245e+38
-0.069777973 0.54629457 1.8280001 -1.9151807e+38
-0.065209694 0.54988623 1.84 -1.9018363e+38
-0.06044488 0.55228215 1.848 -1.9151807e+38
-0.055576272 0.55407989 1.8540001 -1.8751475e+38
-0.050702006 0.55617625 1.8610001 -1.8884404e+38
-0.045789372 0.55827212 1.868 -1.9016805e+38
-0.040729493 0.55887347 1.8700001 -1.8883361e+38
-0.035620499 0.55887657 1.8700001 -1.8615956e+38
-0.03051142 0.55887926 1.8700001 -1.8482512e+38
-0.025443029 0.55977815 1.8730001 -1.87494e+38
-0.020347333 0.56037778 1.8750001 -1.8882844e+38
-0.015248783 0.56127584 1.8780001 -1.9147647e+38
-0.01012842 0.56187463 1.8800001 -1.9413493e+38
-0.0049997591 0.5627718 1.8830001 -1.9012637e+38
0.00014522942 0.56336975 1.8850001 -2.8483482e+38
0.0052927178 0.5630706 1.8840001 -2.8215541e+38
0.010445815 0.56336886 1.8850001 -2.8078968e+38
0.01560435 0.56366664 1.886 -2.8478253e+38
0.020790331 0.56456178 1.8890001 -2.887859e+38
0.025965177 0.56485873 1.8900001 -2.8745146e+38
0.031145429 0.56515521 1.891 -2.8878586e+38
0.036369484 0.5660491 1.8940001 -2.8745659e+38
0.041631788 0.56724143 1.8980001 -2.8877543e+38
0.046891186 0.56813443 1.9010001 -2.8877541e+38
0.052139468 0.56872803 1.9030001 -2.8745659e+38
0.057368439 0.56902242 1.904 -2.8611698e+38
0.062668465 0.56991416 1.9070001 -2.9145474e+38
0.067984752 0.57080549 1.9100001 -2.8880677e+38
0.073508903 0.57319057 1.9180001 -2.9015691e+38
0.079528242 0.57886249 1.937 -2.9551037e+38
-0.13845542 0.53649044 1.812 -1.9556322e+38
-0.13247673 0.5323559 1.7980001 -2.0891277e+38
-0.12699988 0.52999735 1.7900001 -1.9420267e+38
-0.12190757 0.52911884 1.7870001 -1.9553709e+38
-0.11689686 0.52853608 1.7850001 -1.995247e+38
-0.11214787 0.52913731 1.7870001 -1.9552137e+38
-0.10726766 0.52914602 1.7870001 -1.9552137e+38
-0.10238721 0.52915436 1.7870001 -1.9418693e+38
-0.097451985 0.52886629 1.7860001 -1.9552137e+38
-0.092573836 0.52887386 1.7860001 -1.9551095e+38
-0.087793693 0.52947336 1.7880001 -1.9417134e+38
-0.083048806 0.53036869 1.7910001 -1.9150245e+38
-0.078287333 0.53126347 1.794 -1.9283694e+38
-0.073591128 0.53275043 1.7990001 -1.8883361e+38
-0.069058299 0.53571755 1.8090001 -1.9283694e+38
-0.064612448 0.53986889 1.8230001 -1.9151807e+38
-0.060024556 0.54342777 1.835 -1.9151807e+38
-0.055251025 0.54580158 1.8430001 -1.8884919e+38
-0.050433669 0.54817516 1.8510001 -1.8484072e+38
-0.045596994 0.55084443 1.8600001 -1.875096e+38
-0.040645689 0.55262488 1.8660001 -1.8617516e+38
-0.03558531 0.55322027 1.868 -1.87494e+38
-0.030497603 0.55351925 1.8690001 -1.8615956e+38
-0.025390772 0.55352151 1.8690001 -1.8484074e+38
-0.020316442 0.55441183 1.8720001 -1.8617518e+38
-0.015225674 0.55530185 1.8750001 -1.87494e+38
-0.010123862 0.5564875 1.8790001 -1.9147647e+38
-0.0049948581 0.55708039 1.881 -1.9413493e+38
0.00014508724 0.55767298 1.8830001 -2.1145637e+38
0.0052875332 0.55737656 1.8820001 -2.7816262e+38
0.010446671 0.55826449 1.8850001 -2.8346901e+38
0.01562218 0.55915183 1.8880001 -2.8345856e+38
0.020825056 0.56033498 1.8920001 -2.887859e+38
0.026022261 0.56092536 1.8940001 -2.8478258e+38
0.031213868 0.56121916 1.8950001 -2.901203e+38
0.03644928 0.56210488 1.8980001 -2.8344809e+38
0.041679062 0.56269395 1.9000001 -2.8344809e+38
0.046919681 0.56328267 1.9020001 -2.8478253e+38
0.052198522 0.56416702 1.9050001 -2.9012547e+38
0.05740324 0.56416255 1.9050001 -2.8478253e+38
0.062772147 0.56563836 1.9100001 -2.861274e+38
0.068168253 0.56711382 1.9150001 -2.8614831e+38
0.073936477 0.57125401 1.9290001 -2.8216588e+38
-0.14341347 0.53157103 1.812 -2.0223544e+38
-0.13731998 0.52718151 1.7970001 -1.9690281e+38
-0.13189763 0.5251385 1.7900001 -1.9954043e+38
-0.12672606 0.52397525 1.7860001 -1.9687155e+38
-0.12171254 0.52339828 1.784 -1.8618558e+38
-0.11684064 0.52340776 1.784 -1.9418695e+38
-0.11196851 0.52341688 1.784 -1.9552137e+38
-0.10691603 0.5225454 1.7810001 -1.9552137e+38
-0.101937 0.52196693 1.779 -1.9285249e+38
-0.097077817 0.52197492 1.779 -1.9285249e+38
-0.092270263 0.52227598 1.7800001 -1.9817466e+38
-0.087506138 0.52287006 1.7820001 -1.9150245e+38
-0.082777277 0.52375728 1.7850001 -1.9016805e+38
-0.077988192 0.52435064 1.7870001 -1.915025e+38
-0.073228911 0.52523708 1.7900001 -1.8883361e+38
-0.068529435 0.52671003 1.7950001 -1.8749917e+38
-0.06401515 0.52994317 1.8060001 -1.9017848e+38
-0.059538752 0.53405637 1.8200001 -1.875096e+38
-0.054955743 0.53787577 1.8330001 -1.9018363e+38
-0.050192565 0.54052103 1.8420001 -1.9151807e+38
-0.045380093 0.54316598 1.8510001 -1.8751475e+38
-0.040496543 0.54551709 1.8590001 -1.8884404e+38
-0.035531089 0.54728091 1.8650001 -1.8484072e+38
-0.030434838 0.54728359 1.8650001 -1.8617516e+38
-0.025338521 0.54728597 1.8650001 -1.835063e+38
-0.020263851 0.54787475 1.8670001 -1.8484074e+38
-0.015194445 0.54904997 1.8710001 -1.8750962e+38
-0.010108532 0.55051827 1.876 -1.8749917e+38
-0.0049899593 0.55139929 1.8790001 -1.9147647e+38
0.00014509923 0.55257332 1.8830001 -1.9146603e+38
0.00529359 0.55286658 1.8840001 -2.2749053e+38
0.010464162 0.55403972 1.8880001 -2.7549374e+38
0.015648294 0.55491894 1.891 -2.768125e+38
0.020859797 0.55609125 1.8950001 -2.9145478e+38
0.026065629 0.55667627 1.8970001 -2.8745146e+38
0.031265859 0.55696732 1.8980001 -2.8478253e+38
0.036509898 0.55784494 1.9010001 -2.8611698e+38
0.041726366 0.55813509 1.9020001 -2.901203e+38
0.046997543 0.55901176 1.9050001 -2.8745659e+38
0.052257609 0.55959457 1.9070001 -2.8745659e+38
0.057528485 0.56017697 1.909 -2.8611698e+38
0.062941618 0.56193262 1.9150001 -2.8878586e+38
0.068458617 0.56427473 1.9230001 -2.8880145e+38
0.074402481 0.56955075 1.9410001 -2.9151727e+38
-0.14853573 0.52723199 1.8140001 -2.7963299e+38
-0.14231656 0.52259302 1.7980001 -1.8888055e+38
-0.13687223 0.52056938 1.7910001 -2.0222495e+38
-0.13146587 0.51854533 1.784 -1.9687153e+38
-0.12652321 0.51826495 1.7830001 -1.9286821e+38
-0.12151751 0.51769346 1.7810001 -1.8885962e+38
-0.11678446 0.51828432 1.7830001 -1.9151807e+38
-0.11178916 0.51771212 1.7810001 -1.9552139e+38
-0.1067445 0.51684874 1.7780001 -1.9418695e+38
-0.101716 0.51598513 1.7750001 -1.8884917e+38
-0.096867368 0.51599312 1.7750001 -1.9018363e+38
-0.09212222 0.51658219 1.7770001 -1.9018363e+38
-0.087365925 0.51717091 1.779 -1.9016805e+38
-0.082598507 0.51775926 1.7810001 -1.8749917e+38
-0.077819981 0.51834726 1.7830001 -1.9016805e+38
-0.07303033 0.51893491 1.7850001 -1.915025e+38
-0.068305962 0.52010357 1.789 -1.8616473e+38
-0.063665926 0.52214408 1.7960001 -1.8484072e+38
-0.059183773 0.52592862 1.8090001 -1.875096e+38
-0.054630447 0.52971274 1.8220001 -1.9151807e+38
-0.049978696 0.53320593 1.8340001 -1.9285251e+38
-0.045187689 0.53582644 1.8430001 -1.9018363e+38
-0.040325604 0.53815585 1.8510001 -1.9017848e+38
-0.035400651 0.54019415 1.858 -1.8884404e+38
-0.0303884 0.54135996 1.8620001 -1.8484072e+38
-0.025313444 0.54165292 1.863 -1.835063e+38
-0.020232966 0.54194558 1.8640001 -1.835063e+38
-0.015155097 0.54252851 1.8660001 -1.8617518e+38
-0.010077041 0.54369259 1.8700001 -1.8617518e+38
-0.0049797501 0.54514688 1.8750001 -1.9015759e+38
0.00014495713 0.54689157 1.881 -1.9415047e+38
0.0052940296 0.54776359 1.8840001 -1.9147633e+38
0.010459487 0.54863518 1.8870001 -2.4481209e+38
0.015666146 0.55037856 1.8930001 -2.7149042e+38
0.020872539 0.55124933 1.8960001 -2.8080012e+38
0.026109016 0.5524103 1.9000001 -2.8745146e+38
0.031334344 0.55298936 1.9020001 -2.8478253e+38
0.036608949 0.55414957 1.9060001 -2.9145474e+38
0.041817576 0.55414629 1.9060001 -2.8745142e+38
0.047026101 0.55414259 1.9060001 -2.901203e+38
0.052261919 0.55442917 1.9070001 -2.9278918e+38
0.057563361 0.5552969 1.9100001 -2.8611698e+38
0.063078292 0.55790854 1.9190001 -2.7945524e+38
0.06882026 0.56197321 1.9330001 -2.9147565e+38
-0.15350015 0.52230531 1.8140001 -2.1290048e+38
-0.14740092 0.51828593 1.8000001 -1.7687058e+38
-0.14201111 0.51656973 1.794 -1.9153377e+38
-0.13657735 0.51456511 1.7870001 -2.0354889e+38
-0.13140261 0.51342398 1.7830001 -1.9686626e+38
-0.12639135 0.51285833 1.7810001 -1.9953514e+38
-0.12132252 0.51200438 1.7780001 -1.8619074e+38
-0.11646631 0.51201391 1.7780001 -1.8752518e+38
-0.11148431 0.51144713 1.7760001 -1.8884919e+38
-0.106573 0.51116794 1.7750001 -1.9018363e+38
-0.10155231 0.51031244 1.7720001 -1.8884404e+38
-0.096711501 0.51032054 1.7720001 -1.875096e+38
-0.091974176 0.51090419 1.774 -1.8884404e+38
-0.087225713 0.51148754 1.7760001 -1.9284736e+38
-0.082512498 0.51235849 1.779 -1.8484072e+38
-0.07773906 0.51294106 1.7810001 -1.8615956e+38
-0.072995424 0.51381135 1.784 -1.8882844e+38
-0.068197042 0.51439321 1.7860001 -1.87494e+38
-0.063493907 0.51583862 1.7910001 -1.835063e+38
-0.05892691 0.51872391 1.8010001 -1.8617516e+38
-0.054425064 0.52276087 1.8150001 -1.9017848e+38
-0.04979207 0.52622157 1.8270001 -1.9017848e+38
-0.044995278 0.5285297 1.835 -1.9018363e+38
-0.040111084 0.53026146 1.8410001 -1.8484072e+38
-0.035251167 0.53285688 1.8500001 -1.8884404e+38
-0.03027668 0.53429979 1.8550001 -1.875096e+38
-0.025274793 0.53574228 1.8600001 -1.8484072e+38
-0.02018038 0.53545612 1.8590001 -1.8484074e+38
-0.015115751 0.53603369 1.8610001 -1.8482512e+38
-0.010050936 0.53718686 1.8650001 -1.87494e+38
-0.004972198 0.5392037 1.8720001 -1.8616473e+38
0.00014473805 0.54093218 1.8780001 -1.8749917e+38
0.0052916617 0.54237211 1.8830001 -1.8882315e+38
0.010454818 0.54323554 1.886 -1.8746788e+38
0.015667453 0.54525071 1.8930001 -2.6217554e+38
0.020874277 0.54611325 1.8960001 -2.7283001e+38
0.026111193 0.5472635 1.9000001 -2.7947611e+38
0.031353436 0.54812515 1.9030001 -2.8346898e+38
0.036650419 0.54956245 1.9080001 -2.8212412e+38
0.041886877 0.54984725 1.909 -2.84793e+38
0.047104031 0.54984349 1.909 -2.8745142e+38
0.052375883 0.5504154 1.9110001 -2.901203e+38
0.057718828 0.55156291 1.9150001 -2.84793e+38
0.063280739 0.55443817 1.9250001 -2.9545293e+38
0.069217607 0.55990505 1.9440001 -2.9946156e+38
-0.15820286 0.51652181 1.8110001 -2.6360926e+38
-0.15224278 0.51311141 1.7990001 -1.8219792e+38
-0.14683926 0.51141191 1.7930001 -1.8620641e+38
-0.14170569 0.51056755 1.7900001 -2.0088001e+38
-0.1363589 0.50886726 1.784 -1.9686624e+38
-0.13104458 0.50716645 1.7780001 -2.0086956e+38
-0.12597564 0.50632101 1.7750001 -1.9686624e+38
-0.12119579 0.50661618 1.7760001 -1.9019406e+38
-0.11641018 0.50691104 1.7770001 -1.8619074e+38
-0.11155609 0.50692034 1.7770001 -1.8752518e+38
-0.10652161 0.50607336 1.774 -1.9284736e+38
-0.10156057 0.50551122 1.7720001 -1.8617516e+38
-0.09655565 0.50466347 1.7690001 -1.8484072e+38
-0.091826163 0.50524187 1.771 -1.8617516e+38
-0.087134637 0.50610501 1.774 -1.9017848e+38
-0.082426518 0.5069679 1.7770001 -1.8484072e+38
-0.077658169 0.50754511 1.779 -1.8617518e+38
-0.072919615 0.50840718 1.7820001 -1.8882844e+38
-0.068202682 0.50955427 1.7860001 -1.8617518e+38
-0.063463733 0.510701 1.7900001 -1.8217186e+38
-0.058833651 0.51298857 1.7980001 -1.8484074e+38
-0.054219678 0.51584637 1.8080001 -1.8617516e+38
-0.049605429 0.51927453 1.8200001 -1.915025e+38
-0.044802856 0.5212757 1.8270001 -1.9016805e+38
-0.03989654 0.52242047 1.8310001 -1.875096e+38
-0.03502544 0.52442086 1.8380001 -1.8883361e+38
-0.030132309 0.52670622 1.8460001 -1.875096e+38
-0.025195369 0.5289911 1.8540001 -1.875096e+38
-0.020138646 0.5292784 1.8550001 -1.8484074e+38
-0.015076404 0.52956516 1.8560001 -1.8615956e+38
-0.010024831 0.53070754 1.8600001 -1.8615956e+38
-0.0049566776 0.5324201 1.8660001 -1.8882844e+38
0.00014428773 0.53413224 1.8720001 -1.8882844e+38
0.0052724327 0.53527337 1.876 -1.9282651e+38
0.010433519 0.53698462 1.8820001 -1.9814336e+38
0.01563566 0.53898084 1.8890001 -1.9280041e+38
0.020865018 0.54069126 1.8950001 -2.5682202e+38
0.026113382 0.54211587 1.9000001 -2.715007e+38
0.031372536 0.54325479 1.904 -2.7815207e+38
0.036634274 0.54410785 1.9070001 -2.808001e+38
0.041912321 0.54496056 1.9100001 -2.7945524e+38
0.047181994 0.54552752 1.9120001 -2.8479296e+38
0.052489892 0.54637921 1.9150001 -2.8078964e+38
0.057874352 0.54780126 1.9200001 -2.8213454e+38
0.063549004 0.55150515 1.9330001 -2.8745671e+38
0.069864303 0.55977362 1.9620001 -2.968083e+38
-0.16361034 0.51301372 1.8160001 nan
-0.15716694 0.50822389 1.7990001 -1.7552572e+38
-0.15174699 0.50654089 1.7930001 -1.9153892e+38
-0.14652328 0.50542271 1.789 -2.0088001e+38
-0.14132112 0.50430405 1.7850001 -1.9419736e+38
-0.13598758 0.50261998 1.779 -2.0220402e+38
-0.13076025 0.50121802 1.774 -1.9018363e+38
-0.12577285 0.50066334 1.7720001 -1.8751475e+38
-0.12100084 0.50095582 1.7730001 -1.9418695e+38
-0.11622308 0.50124794 1.774 -1.9017848e+38
-0.11137681 0.50125718 1.774 -1.8485114e+38
-0.10647024 0.5009836 1.7730001 -1.8752002e+38
-0.10151157 0.50042701 1.771 -1.835167e+38
-0.096563578 0.49987 1.7690001 -1.8484072e+38
-0.091730006 0.49987775 1.7690001 -1.8617516e+38
-0.087043591 0.5007329 1.7720001 -1.8884404e+38
-0.082386956 0.50187027 1.7760001 -1.8617516e+38
-0.077577293 0.50215936 1.7770001 -1.8617516e+38
-0.072843827 0.50301343 1.7800001 -1.835063e+38
-0.068093792 0.50386715 1.7830001 -1.8484074e+38
-0.063362651 0.50500298 1.7870001 -1.8482512e+38
-0.058674943 0.50670367 1.7930001 -1.8349068e+38
-0.054044262 0.50925177 1.802 -1.87494e+38
-0.049418777 0.5123648 1.8130001 -1.915025e+38
-0.044659466 0.51462966 1.8210001 -1.915025e+38
-0.039769143 0.51576358 1.825 -1.8884404e+38
-0.03489498 0.51746249 1.8310001 -1.8484072e+38
-0.030004246 0.51944345 1.8380001 -1.9017848e+38
-0.025102358 0.52198935 1.8470001 -1.875096e+38
-0.020096915 0.52312171 1.8510001 -1.8617516e+38
-0.015045182 0.52340579 1.8520001 -1.9016805e+38
-0.0099987267 0.52425474 1.8550001 -1.8615956e+38
-0.0049411566 0.52566844 1.8600001 -1.87494e+38
0.00014391448 0.5276469 1.8670001 -1.9016288e+38
0.0052672555 0.529625 1.8740001 -1.8883361e+38
0.010428854 0.53160262 1.881 -1.9016801e+38
0.015612142 0.5330146 1.886 -1.9282651e+38
0.020811718 0.53414357 1.8900001 -1.8746271e+38
0.026046855 0.53555465 1.8950001 -2.50176e+38
0.031325743 0.53724802 1.9010001 -2.7949706e+38
0.036618143 0.53865814 1.9060001 -2.7283001e+38
0.041959733 0.5403505 1.9120001 -2.7815209e+38
0.04728467 0.54147726 1.9160001 -2.7679678e+38
0.052658763 0.54288602 1.9210001 -2.7679678e+38
0.058060065 0.54429442 1.9260001 -2.7413833e+38
0.063751578 0.54796314 1.9390001 -2.7549364e+38
0.070261858 0.55756593 1.973 -3.0086373e+38
-0.16913837 0.50975716 1.8220001 nan
-0.16236179 0.50417447 1.802 -1.7016195e+38
-0.15682985 0.50222856 1.7950001 -1.8753047e+38
-0.15142047 0.50056201 1.789 -1.8887004e+38
-0.14620732 0.49945462 1.7850001 -1.9286294e+38
-0.14085734 0.49778721 1.779 -1.9552139e+38
-0.13569272 0.4966791 1.7750001 -1.9685583e+38
-0.13047592 0.4952907 1.7700001 -1.8884919e+38
-0.12557006 0.49502125 1.7690001 -1.8484587e+38
-0.12087416 0.49559093 1.771 -1.8617516e+38
-0.1161015 0.4958804 1.7720001 -1.8884404e+38
-0.11132313 0.49616954 1.7730001 -1.8485114e+38
-0.10635886 0.49561876 1.771 -1.8618558e+38
-0.1014626 0.49534747 1.7700001 -1.835167e+38
-0.096516952 0.49479592 1.7680001 -1.8617516e+38
-0.091685735 0.49480373 1.7680001 -1.8617516e+38
-0.087001674 0.49565068 1.771 -1.8884404e+38
-0.082301006 0.49649739 1.774 -1.8884404e+38
-0.077496432 0.49678394 1.7750001 -1.8350628e+38
-0.072727129 0.49734998 1.7770001 -1.8484074e+38
-0.068023093 0.49847537 1.7810001 -1.835063e+38
-0.063332498 0.49988034 1.7860001 -1.8617518e+38
-0.058614414 0.5012849 1.7910001 -1.7950298e+38
-0.05392883 0.50324881 1.7980001 -1.8882844e+38
-0.049204852 0.50521243 1.8050001 -1.9016288e+38
-0.044491541 0.50773555 1.8140001 -1.8749917e+38
-0.039619949 0.50885862 1.8180001 -1.8884404e+38
-0.034802627 0.51110101 1.8260001 -1.875096e+38
-0.029892504 0.51250321 1.8310001 -1.8884404e+38
-0.025022926 0.51530463 1.8410001 -1.8884404e+38
-0.02006604 0.51726586 1.848 -1.8883361e+38
-0.01503833 0.51810706 1.8510001 -1.9016805e+38
-0.0099833999 0.51838803 1.8520001 -1.8882844e+38
-0.0049282918 0.51922846 1.8550001 -1.8615956e+38
0.00014354124 0.52118796 1.8620001 -1.8882844e+38
0.0052564587 0.52342701 1.8700001 -1.8617516e+38
0.010413104 0.52566558 1.8780001 -1.8617516e+38
0.015580351 0.52678412 1.8820001 -1.9150245e+38
0.02078044 0.52818209 1.8870001 -1.9281602e+38
0.02599407 0.52929968 1.891 -1.9147633e+38
0.031278949 0.53125668 1.8980001 -2.1547527e+38
0.036602017 0.53321308 1.9050001 -2.8351087e+38
0.042007167 0.53572887 1.914 -2.8216594e+38
0.047412056 0.53768444 1.9210001 -2.7414877e+38
0.052800264 0.53907967 1.9260001 -2.7413835e+38
0.058245827 0.54075432 1.932 -2.7281431e+38
0.063987099 0.54466772 1.9460001 -2.7149032e+38
0.070481427 0.55389839 1.9790001 -2.9419152e+38
0.077386074 0.56480777 2.0180001 -2.9555211e+38
-0.17498632 0.50729805 1.8310001 nan
-0.16738772 0.49955365 1.8030001 -1.715224e+38
-0.16201417 0.49818128 1.7980001 -1.7818939e+38
-0.15666755 0.49680859 1.7930001 -1.8085825e+38
-0.15143253 0.49571243 1.789 -1.8618031e+38
-0.14605519 0.49406183 1.7830001 -1.9018363e+38
-0.14063112 0.49213365 1.7760001 -1.9418695e+38
-0.13547431 0.49103639 1.7720001 -1.9151807e+38
-0.13048649 0.49049291 1.7700001 -1.8884919e+38
-0.12550929 0.48994908 1.7680001 -1.8484072e+38
-0.1207475 0.49023625 1.7690001 -1.8484072e+38
-0.11597996 0.4905231 1.7700001 -1.875096e+38
-0.11120669 0.4908095 1.771 -1.8484072e+38
-0.10630755 0.49054134 1.7700001 -1.875096e+38
-0.10141364 0.49027279 1.7690001 -1.8884404e+38
-0.096634142 0.49055812 1.7700001 -1.875096e+38
-0.091745198 0.49028876 1.7690001 -1.8484072e+38
-0.086959787 0.49057341 1.7700001 -1.875096e+38
-0.082215078 0.49113476 1.7720001 -1.9017848e+38
-0.077502921 0.49197298 1.7750001 -1.8750962e+38
-0.072733223 0.49253359 1.7770001 -1.8484074e+38
-0.067914218 0.49281666 1.7780001 -1.835063e+38
-0.063231431 0.49420807 1.7830001 -1.835063e+38
-0.058488429 0.49532193 1.7870001 -1.8083742e+38
-0.053813394 0.49726689 1.794 -1.8750962e+38
-0.049099963 0.49921161 1.8010001 -1.835063e+38
-0.044372663 0.50143301 1.8090001 -1.875096e+38
-0.039536126 0.50282258 1.8140001 -1.875096e+38
-0.034729332 0.50504321 1.8220001 -1.8617516e+38
-0.029829729 0.50643194 1.8270001 -1.8749917e+38
-0.024984272 0.5094834 1.8380001 -1.915025e+38
-0.020035164 0.51142561 1.845 -1.9016805e+38
-0.015031483 0.51281309 1.8500001 -1.915025e+38
-0.0099680759 0.512537 1.8490001 -1.8883361e+38
-0.0049207392 0.5133692 1.8520001 -1.8350628e+38
0.00014324504 0.51503259 1.858 -1.835063e+38
0.0052540945 0.51808155 1.8690001 -1.8617518e+38
0.010408443 0.52029848 1.8770001 -1.875096e+38
0.015556837 0.52085173 1.8790001 -1.8484072e+38
0.020716127 0.52140462 1.881 -1.9016805e+38
0.025913795 0.52251136 1.8850001 -1.9015759e+38
0.031182714 0.52444929 1.8920001 -1.9148158e+38
0.036489833 0.5263868 1.899 -1.8880749e+38
0.041900974 0.52915531 1.909 -2.7553037e+38
0.047366701 0.53192347 1.9190001 -2.7817311e+38
0.052832142 0.53413671 1.927 -2.7282486e+38
0.058371346 0.5366267 1.9360001 -2.7149032e+38
0.064156905 0.54077923 1.9510001 -2.7415924e+38
0.070558593 0.5490889 1.9810001 -2.9684479e+38
0.077047408 0.55684364 2.0090001 -3.008586e+38
0.083113924 0.56071734 2.023 -1.7947174e+38
-0.17289738 0.49629819 1.8090001 nan
-0.16702954 0.49356806 1.7990001 -1.7017234e+38
-0.16184677 0.49275798 1.7960001 -1.8352713e+38
-0.15668003 0.49194759 1.7930001 -1.8218226e+38
-0.1511907 0.49003932 1.7860001 -2.0085916e+38
-0.14565732 0.48785615 1.7780001 -1.8217699e+38
-0.1402465 0.48594692 1.771 -1.9819026e+38
-0.13517945 0.4851349 1.7680001 -1.9151807e+38
-0.13027592 0.48487136 1.7670001 -1.9018363e+38
-0.12544852 0.48488173 1.7670001 -1.8484072e+38
-0.12068912 0.48516625 1.7680001 -1.8484074e+38
-0.11592395 0.48545036 1.7690001 -1.8750962e+38
-0.11109025 0.48545969 1.7690001 -1.835063e+38
-0.10625627 0.48546866 1.7690001 -1.8484074e+38
-0.10136471 0.48520288 1.7680001 -1.835063e+38
-0.096532963 0.4852111 1.7680001 -1.8484074e+38
-0.091649123 0.48494455 1.7670001 -1.8617516e+38
-0.086868778 0.48522636 1.7680001 -1.8617516e+38
-0.082175553 0.48605683 1.771 -1.875096e+38
-0.077509418 0.48716137 1.7750001 -1.8750962e+38
-0.072657466 0.48716766 1.7750001 -1.8484074e+38
-0.067843542 0.48744813 1.7760001 -1.8217186e+38
-0.063130364 0.48855144 1.7800001 -1.8083742e+38
-0.058460638 0.49020347 1.7860001 -1.835063e+38
-0.053787954 0.4921295 1.7930001 -1.835063e+38
-0.049022328 0.49350619 1.7980001 -1.8750962e+38
-0.044302836 0.49570599 1.8060001 -1.8350628e+38
-0.039452296 0.49680749 1.8100001 -1.875096e+38
-0.034636974 0.49873194 1.817 -1.8883361e+38
-0.029750625 0.50010711 1.8220001 -1.8883361e+38
-0.024932023 0.50340325 1.8340001 -1.9016805e+38
-0.020004295 0.50560105 1.8420001 -1.9016805e+38
-0.015024639 0.50752401 1.8490001 -1.8883361e+38
-0.0099689262 0.50752497 1.8490001 -1.8883361e+38
-0.0049185017 0.50807458 1.8510001 -1.875096e+38
0.00014302596 0.50917274 1.8550001 -1.8217186e+38
0.0052376739 0.51136845 1.863 -1.8750962e+38
0.010381604 0.51383817 1.8720001 -1.8484074e+38
0.015533322 0.5149349 1.876 -1.8884404e+38
0.020695863 0.51575685 1.8790001 -1.87494e+38
0.025888506 0.51685286 1.8830001 -1.8749917e+38
0.031135919 0.51849735 1.8890001 -1.8882315e+38
0.036396846 0.51986682 1.8940001 -1.8614384e+38
0.041706979 0.52151036 1.9000001 -1.8747307e+38
0.047173236 0.52452588 1.9110001 -2.6350998e+38
0.052754361 0.52808976 1.9240001 -2.7818353e+38
0.058436591 0.53192776 1.9380001 -2.674871e+38
0.064228103 0.53603959 1.9530001 -2.8350038e+38
0.070493303 0.54317009 1.9790001 -2.9284149e+38
0.076632001 0.54837871 1.9980001 -2.9550522e+38
0.082504593 0.55111665 2.0080001 -1.8480942e+38
0.088650748 0.55522627 2.023 -1.7680809e+38
-0.17932501 0.49545363 1.8240001 nan
-0.17224191 0.48949149 1.802 -1.7015676e+38
-0.16685706 0.48814675 1.7970001 -1.8486159e+38
-0.16176952 0.48761651 1.7950001 -1.835167e+38
-0.15660517 0.48681426 1.7920001 -1.9018363e+38
-0.15111816 0.48492497 1.7850001 -1.9285251e+38
-0.14534135 0.48194852 1.774 -1.8618029e+38
-0.14009948 0.48060176 1.7690001 -1.9685581e+38
-0.13511397 0.48006952 1.7670001 -1.9418695e+38
-0.13028653 0.48008037 1.7670001 -1.9018363e+38
-0.12552981 0.4803625 1.7680001 -1.8350628e+38
-0.12069905 0.4803727 1.7680001 -1.835063e+38
-0.11586797 0.48038238 1.7680001 -1.835063e+38
-0.11103664 0.4803918 1.7680001 -1.8617518e+38
-0.10620502 0.48040077 1.7680001 -1.835063e+38
-0.10131581 0.48013774 1.7670001 -1.8217186e+38
-0.096431807 0.47987419 1.766 -1.8217186e+38
-0.09155304 0.47961032 1.7650001 -1.8484074e+38
-0.086777784 0.47988957 1.766 -1.835063e+38
-0.082089655 0.48071185 1.7690001 -1.8884404e+38
-0.077428594 0.48180559 1.7730001 -1.8617518e+38
-0.072622657 0.48208368 1.774 -1.8484074e+38
-0.067849278 0.48263311 1.7760001 -1.8217186e+38
-0.063100249 0.48345393 1.779 -1.8083742e+38
-0.058400128 0.48481786 1.784 -1.8217186e+38
-0.053702515 0.48645318 1.7900001 -1.8083742e+38
-0.048944697 0.48781636 1.7950001 -1.8750962e+38
-0.044233009 0.48999447 1.8030001 -1.8617516e+38
-0.039368466 0.49081331 1.8060001 -1.8617516e+38
-0.034544606 0.49244708 1.812 -1.8617516e+38
-0.02967152 0.49380866 1.817 -1.8749917e+38
-0.024838988 0.49652877 1.8270001 -1.9016805e+38
-0.019940838 0.49897659 1.8360001 -1.8883361e+38
-0.01496904 0.5006088 1.8420001 -1.9016805e+38
-0.0099482117 0.50142515 1.845 -1.8883361e+38
-0.0049136081 0.50251287 1.8490001 -1.8617518e+38
0.00014288399 0.50360018 1.853 -1.8484074e+38
0.0052268757 0.50523067 1.8590001 -1.835063e+38
0.010349215 0.50713241 1.8660001 -1.8617518e+38
0.015493248 0.50849009 1.8710001 -1.8484074e+38
0.020653576 0.50957572 1.8750001 -1.8617518e+38
0.025835719 0.51066083 1.8790001 -1.8484074e+38
0.031056158 0.51201725 1.8840001 -1.8616473e+38
0.036303863 0.51337314 1.8890001 -1.9015763e+38
0.041578818 0.51472872 1.8940001 -1.8882315e+38
0.046979759 0.51717085 1.9030001 -1.9147633e+38
0.052484635 0.52015597 1.914 -2.2348719e+38
0.058140002 0.523956 1.9280001 -2.86185e+38
0.063904665 0.52802724 1.9430001 -2.9285195e+38
0.070107408 0.53481537 1.9680001 -2.8751419e+38
0.076293252 0.54051608 1.9890001 -2.8482971e+38
0.082100637 0.54295516 1.9980001 -2.2212147e+38
0.088176146 0.54675245 2.0120001 -1.8880749e+38
0.094886668 0.55381 2.0380001 -1.8619603e+38
-0.17786431 0.48647335 1.8090001 -3.3031046e+38
-0.171682 0.48299113 1.7960001 -1.7685494e+38
-0.1664989 0.48219776 1.7930001 -1.8219269e+38
-0.16133183 0.48140407 1.7900001 -1.9018363e+38
-0.15626813 0.48087892 1.7880001 -1.9550578e+38
-0.15079167 0.47900862 1.7810001 -1.928369e+38
-0.14527118 0.47686896 1.7730001 -1.9284207e+38
-0.13979404 0.47472879 1.7650001 -2.0085916e+38
-0.13489556 0.474471 1.7640001 -1.9151807e+38
-0.13014974 0.47475082 1.7650001 -1.9151807e+38
-0.12546909 0.47529927 1.7670001 -1.8484072e+38
-0.12050416 0.47477138 1.7650001 -1.8484074e+38
-0.11561538 0.47451222 1.7640001 -1.8484074e+38
-0.1107946 0.47452158 1.7640001 -1.835063e+38
-0.1060937 0.47506857 1.766 -1.8484074e+38
-0.10126691 0.47507727 1.766 -1.835063e+38
-0.09638527 0.47481653 1.7650001 -1.8217186e+38
-0.091456972 0.47428638 1.7630001 -1.8217186e+38
-0.086735941 0.47483194 1.7650001 -1.8617518e+38
-0.08205016 0.47564608 1.7680001 -1.8617518e+38
-0.077391461 0.47672895 1.7720001 -1.901785e+38
-0.072587863 0.47700438 1.7730001 -1.835063e+38
-0.067893229 0.47808647 1.7770001 -1.8217186e+38
-0.063105598 0.4786301 1.779 -1.835063e+38
-0.058405094 0.47998047 1.784 -1.835063e+38
-0.053617079 0.48079243 1.7870001 -1.8083742e+38
-0.048867065 0.48214206 1.7920001 -1.8617518e+38
-0.044163179 0.48429844 1.8000001 -1.8484074e+38
-0.039350029 0.48564732 1.8050001 -1.8750962e+38
-0.034490366 0.48672676 1.8090001 -1.8617518e+38
-0.029592404 0.48753664 1.812 -1.8617516e+38
-0.024732342 0.48942241 1.8190001 -1.8484072e+38
-0.019855654 0.49184588 1.8280001 -1.9017848e+38
-0.014921559 0.49399984 1.8360001 -1.9016805e+38
-0.0099274963 0.49534625 1.8410001 -1.8617516e+38
-0.0049060564 0.49669218 1.8460001 -1.8617516e+38
0.0001425878 0.49749959 1.8490001 -1.8484074e+38
0.0052048289 0.49803749 1.8510001 -1.835063e+38
0.010300183 0.49965122 1.8570001 -1.8750962e+38
0.015436607 0.50153357 1.8640001 -1.8617518e+38
0.020622296 0.50368452 1.8720001 -1.8484072e+38
0.025810434 0.50502783 1.8770001 -1.8617516e+38
0.031025847 0.50637066 1.8820001 -1.8484074e+38
0.036249306 0.50744402 1.886 -1.9016288e+38
0.041494556 0.50851691 1.8900001 -1.8883361e+38
0.046860322 0.5106656 1.8980001 -1.9015763e+38
0.052269723 0.51281375 1.9060001 -1.9149203e+38
0.057783052 0.51549959 1.9160001 -1.8747307e+38
0.06325224 0.51737779 1.9230001 -2.3818169e+38
0.069044568 0.52140784 1.9380001 -2.9288854e+38
0.075187258 0.52732068 1.96 -2.8221823e+38
0.081367888 0.53269488 1.9800001 -2.0081739e+38
0.087613814 0.53779936 1.9990001 -1.8749384e+38
0.094149657 0.54397941 2.0220001 -2.288877e+38
0.10110681 0.55177307 2.0510001 -1.9954043e+38
-0.1860518 0.49007094 1.8410001 nan
-0.17689508 0.47890484 1.7990001 -1.8085827e+38
-0.17140885 0.47732139 1.7930001 -1.8219271e+38
-0.1662336 0.47653618 1.7900001 -1.8218226e+38
-0.16116448 0.47601679 1.7880001 -1.9016801e+38
-0.15601848 0.47523087 1.7850001 -1.9684022e+38
-0.15071921 0.47391212 1.7800001 -1.9150245e+38
-0.14520103 0.4717941 1.7720001 -1.9016801e+38
-0.13980544 0.46994191 1.7650001 -2.0217798e+38
-0.13475364 0.46915433 1.7620001 -1.9151807e+38
-0.13001294 0.46943155 1.7630001 -1.8884919e+38
-0.12526639 0.46970826 1.7640001 -1.8217184e+38
-0.12051412 0.46998468 1.7650001 -1.8484074e+38
-0.11562497 0.46972823 1.7640001 -1.8484074e+38
-0.11080383 0.46973765 1.7640001 -1.8484074e+38
-0.10610255 0.47027922 1.766 -1.835063e+38
-0.10139009 0.47082058 1.7680001 -1.835063e+38
-0.096502572 0.47056249 1.7670001 -1.835063e+38
-0.091672175 0.47057045 1.7670001 -1.835063e+38
-0.086792387 0.47031164 1.766 -1.8217186e+38
-0.082010686 0.47058508 1.7670001 -1.8750962e+38
-0.077310659 0.47139084 1.7700001 -1.8884406e+38
-0.072634958 0.47246242 1.774 -1.8617518e+38
-0.067898996 0.47326744 1.7770001 -1.835063e+38
-0.06311097 0.47380561 1.779 -1.8217186e+38
-0.058344588 0.47460979 1.7820001 -1.7950298e+38
-0.053591654 0.47567996 1.7860001 -1.8083742e+38
-0.048843969 0.47701606 1.7910001 -1.8617518e+38
-0.04406881 0.47835174 1.7960001 -1.87494e+38
-0.039287992 0.47995338 1.802 -1.8617518e+38
-0.034417056 0.4807556 1.8050001 -1.8617518e+38
-0.02954595 0.48182374 1.8090001 -1.875096e+38
-0.024666479 0.48315781 1.8140001 -1.8350628e+38
-0.019781319 0.48502412 1.8210001 -1.8884404e+38
-0.014865949 0.48715648 1.8290001 -1.8883361e+38
-0.0099013848 0.48902196 1.8360001 -1.8617516e+38
-0.0049011633 0.49115339 1.8440001 -1.875096e+38
0.00014244582 0.49195272 1.8470001 -1.8617516e+38
0.005196841 0.49221879 1.848 -1.8217186e+38
0.010267786 0.49301717 1.8510001 -1.8617518e+38
0.015388244 0.49488059 1.858 -1.875096e+38
0.020568982 0.49727616 1.8670001 -1.8617516e+38
0.025785144 0.49940494 1.8750001 -1.875096e+38
0.031012021 0.50100058 1.881 -1.8617516e+38
0.036233198 0.50206316 1.8850001 -1.8616473e+38
0.041454196 0.50285882 1.8880001 -1.8883361e+38
0.046765566 0.50445306 1.8940001 -1.8749917e+38
0.052137066 0.50631326 1.9010001 -1.8749917e+38
0.057546705 0.50817299 1.9080001 -1.9282647e+38
0.062961571 0.5097658 1.914 -1.914972e+38
0.068480365 0.51189089 1.9220001 -1.9148674e+38
0.074272908 0.51561344 1.9360001 -1.9949338e+38
0.08022403 0.51986814 1.9520001 -2.0083825e+38
0.086656913 0.52651912 1.9770001 -1.9551091e+38
0.093226284 0.53316957 2.0020001 -2.2354992e+38
0.10003071 0.54035193 2.029 -2.0888152e+38
0.10672234 0.54620206 2.0510001 -1.8487723e+38
0.11375307 0.5531168 2.0770001 -2.2225203e+38
-0.18343872 0.4782263 1.8150001 nan
-0.17700742 0.47428823 1.8000001 -1.7151718e+38
-0.17132689 0.47219411 1.7920001 -1.8485114e+38
-0.16606115 0.47115359 1.7880001 -1.8485629e+38
-0.160907 0.47037616 1.7850001 -1.9817466e+38
-0.15576884 0.46959835 1.7820001 -1.928369e+38
-0.15047736 0.46829307 1.7770001 -1.8883357e+38
-0.14488505 0.46593332 1.7680001 -2.0351242e+38
-0.13942078 0.46383661 1.7600001 -1.9550578e+38
-0.13445877 0.46332076 1.7580001 -1.9417134e+38
-0.12980238 0.46385869 1.7600001 -1.9018363e+38
-0.12520574 0.46465993 1.7630001 -1.8617516e+38
-0.12052412 0.46519727 1.7650001 -1.8484074e+38
-0.11570013 0.46520704 1.7650001 -1.8617518e+38
-0.11087587 0.46521646 1.7650001 -1.8218228e+38
-0.10611142 0.46548906 1.766 -1.8617518e+38
-0.10134123 0.46576139 1.7670001 -1.8484074e+38
-0.096565306 0.46603328 1.7680001 -1.8484074e+38
-0.091628015 0.465514 1.766 -1.8217186e+38
-0.086652279 0.4647308 1.7630001 -1.8217186e+38
-0.081924796 0.46526513 1.7650001 -1.8484074e+38
-0.077273525 0.46632627 1.7690001 -1.8884406e+38
-0.072641134 0.46765071 1.774 -1.8884406e+38
-0.067904778 0.46844754 1.7770001 -1.8217186e+38
-0.063116357 0.4689804 1.779 -1.8217186e+38
-0.058316834 0.46951282 1.7810001 -1.7950298e+38
-0.053566229 0.47057214 1.7850001 -1.8217186e+38
-0.048820883 0.47189462 1.7900001 -1.835063e+38
-0.044072594 0.47348043 1.7960001 -1.8484074e+38
-0.039269567 0.47480217 1.8010001 -1.8484074e+38
-0.034400947 0.47559625 1.8040001 -1.8484074e+38
-0.02954849 0.47691718 1.8090001 -1.8617516e+38
-0.024641404 0.47771037 1.812 -1.8617516e+38
-0.019750433 0.47929415 1.8180001 -1.8884404e+38
-0.014826586 0.48087746 1.8240001 -1.9283694e+38
-0.0098752715 0.48272395 1.8310001 -1.9016805e+38
-0.0048882957 0.48483375 1.8390001 -1.915025e+38
0.00014207246 0.48562488 1.8420001 -1.9016805e+38
0.0051832269 0.48588824 1.8430001 -1.8749917e+38
0.010240933 0.48667854 1.8460001 -1.8484072e+38
0.015356436 0.48878652 1.8540001 -1.9151292e+38
0.020537702 0.4914214 1.8640001 -1.9017848e+38
0.025773613 0.49405578 1.8740001 -1.8884404e+38
0.03101469 0.49589875 1.881 -1.8884404e+38
0.036236312 0.49695045 1.8850001 -1.8617516e+38
0.041435797 0.49747434 1.8870001 -1.87494e+38
0.046695497 0.49852508 1.891 -1.8615956e+38
0.052086666 0.50062984 1.899 -1.8882844e+38
0.057461143 0.50220692 1.9050001 -1.875096e+38
0.06286826 0.50378352 1.9110001 -1.875096e+38
0.068236776 0.50483239 1.9150001 -1.8618031e+38
0.073818833 0.50719893 1.9240001 -1.9018363e+38
0.079573207 0.51035577 1.9360001 -1.8485629e+38
0.085831374 0.51614821 1.9580001 -1.8752516e+38
0.092489041 0.52352166 1.9860001 -2.0353846e+38
0.099299595 0.53089446 2.0140002 -2.0488333e+38
0.10584669 0.53615785 2.0340002 -2.1021594e+38
0.11266717 0.54221129 2.0570002 -1.8888055e+38
0.11961313 0.54826415 2.0800002 -2.2891381e+38
-0.18294783 0.47199827 1.8100001 -1.7018274e+38
-0.17672645 0.46862248 1.7970001 -1.8886491e+38
-0.17124495 0.46707165 1.7910001 -1.8619074e+38
-0.16616733 0.46656358 1.789 -1.8884919e+38
-0.16101012 0.46579438 1.7860001 -1.9550578e+38
-0.15569404 0.46450311 1.7810001 -1.8883357e+38
-0.15023553 0.46268982 1.774 -1.9016801e+38
-0.14456904 0.46009365 1.7640001 -2.0084354e+38
-0.13911529 0.45801863 1.756 -1.928369e+38
-0.13424034 0.45776904 1.7550001 -1.9417134e+38
-0.12966557 0.4585624 1.7580001 -1.9151807e+38
-0.12507403 0.45935541 1.761 -1.8617516e+38
-0.12053411 0.46040905 1.7650001 -1.8217186e+38
-0.11577532 0.46067971 1.766 -1.835063e+38
-0.1110108 0.46095011 1.7670001 -1.835063e+38
-0.1061804 0.46095917 1.7670001 -1.8484074e+38
-0.10146446 0.46148965 1.7690001 -1.8217186e+38
-0.096573442 0.46123713 1.7680001 -1.835063e+38
-0.091687642 0.46098414 1.7670001 -1.8083742e+38
-0.086708769 0.4602091 1.7640001 -1.835063e+38
-0.08188533 0.46021619 1.7640001 -1.8484074e+38
-0.077236414 0.46126652 1.7680001 -1.835063e+38
-0.072606377 0.46257746 1.7730001 -1.8617518e+38
-0.067910574 0.46362704 1.7770001 -1.835063e+38
-0.063086271 0.46389356 1.7780001 -1.835063e+38
-0.058289073 0.46442053 1.7800001 -1.8217186e+38
-0.0535108 0.46520805 1.7830001 -1.8217186e+38
-0.048797794 0.46677798 1.789 -1.835063e+38
-0.044027299 0.46808651 1.794 -1.835063e+38
-0.039207526 0.46913379 1.7980001 -1.8484074e+38
-0.034346696 0.46991971 1.8010001 -1.8617518e+38
-0.029502027 0.47122708 1.8060001 -1.8617518e+38
-0.024616327 0.47227308 1.8100001 -1.8484072e+38
-0.019719541 0.47357965 1.8150001 -1.8617516e+38
-0.014803479 0.47514671 1.8210001 -1.9283694e+38
-0.0098437611 0.47619143 1.825 -1.8883361e+38
-0.0048701093 0.47801861 1.8320001 -1.8883361e+38
0.00014185332 0.47984532 1.8390001 -1.915025e+38
0.0051780497 0.48036695 1.8410001 -1.8883361e+38
0.010236269 0.48140994 1.845 -1.8616473e+38
0.015332914 0.48297444 1.8510001 -1.8484072e+38
0.020506417 0.48558214 1.8610001 -1.8884404e+38
0.025720818 0.48792845 1.8700001 -1.875096e+38
0.030984385 0.49027434 1.8790001 -1.8884404e+38
0.03623943 0.49183697 1.8850001 -1.8884404e+38
0.041483287 0.4928773 1.8890001 -1.8615956e+38
0.046724211 0.49365625 1.8920001 -1.8615956e+38
0.052036278 0.49495652 1.8970001 -1.9016288e+38
0.057466067 0.4970392 1.9050001 -1.8617516e+38
0.062873647 0.4985995 1.9110001 -1.9151292e+38
0.06824261 0.49963748 1.9150001 -1.875096e+38
0.073710017 0.50119686 1.9210001 -1.8352185e+38
0.079333365 0.50353849 1.9300001 -1.8619074e+38
0.085444123 0.5084886 1.9490001 -1.955318e+38
0.092077717 0.51578605 1.9770001 -2.0888663e+38
0.098716289 0.52230024 2.0020001 -1.9020446e+38
0.1052311 0.52750939 2.0220001 -2.0087486e+38
0.11190978 0.53297871 2.043 -1.9687677e+38
0.1187605 0.53870839 2.0650001 -2.3690998e+38
0.12561072 0.54391557 2.085 -2.3024825e+38
-0.18276018 0.46657091 1.8080001 -1.7952383e+38
-0.17654382 0.46323037 1.7950001 -1.9019933e+38
-0.17116302 0.46195385 1.7900001 -1.8619074e+38
-0.1661807 0.46170935 1.789 -1.9285251e+38
-0.16084279 0.46043208 1.784 -1.9151807e+38
-0.15561923 0.45941252 1.7800001 -1.8751475e+38
-0.15007837 0.45736015 1.7720001 -1.928369e+38
-0.14441693 0.45479107 1.7620001 -2.0751574e+38
-0.13896826 0.45273781 1.7540001 -1.928369e+38
-0.1342514 0.45300716 1.7550001 -1.9550578e+38
-0.12975003 0.45405054 1.7590001 -1.9417138e+38
-0.12522648 0.45509365 1.7630001 -1.8484072e+38
-0.12054414 0.45562011 1.7650001 -1.8484074e+38
-0.11571943 0.45562994 1.7650001 -1.8217186e+38
-0.11095726 0.4558976 1.766 -1.8484074e+38
-0.10618931 0.4561649 1.7670001 -1.8484074e+38
-0.10135826 0.45617357 1.7670001 -1.8484074e+38
-0.096526965 0.45618194 1.7670001 -1.835063e+38
-0.091695398 0.4561899 1.7670001 -1.8083742e+38
-0.086814433 0.45593929 1.766 -1.8217186e+38
-0.081938706 0.45568824 1.7650001 -1.835063e+38
-0.077242993 0.4564696 1.7680001 -1.835063e+38
-0.072571605 0.45750868 1.7720001 -1.8484074e+38
-0.067916378 0.45880568 1.7770001 -1.8750962e+38
-0.06309168 0.45906949 1.7780001 -1.835063e+38
-0.058294073 0.45959103 1.7800001 -1.7950298e+38
-0.053485375 0.46011224 1.7820001 -1.8083742e+38
-0.048747431 0.46140766 1.7870001 -1.8484074e+38
-0.043932915 0.46218628 1.7900001 -1.8217186e+38
-0.039145481 0.46348089 1.7950001 -1.835063e+38
-0.034311511 0.46451682 1.7990001 -1.8617518e+38
-0.0294719 0.46581066 1.8040001 -1.8617518e+38
-0.024577651 0.46658763 1.807 -1.8217186e+38
-0.019699514 0.46813881 1.8130001 -1.8617516e+38
-0.014780368 0.4694314 1.8180001 -1.9017848e+38
-0.0098284306 0.4704653 1.8220001 -1.875096e+38
-0.0048572375 0.47175696 1.8270001 -1.875096e+38
0.00014140274 0.47330648 1.8330001 -1.9283694e+38
0.0051644328 0.47408086 1.8360001 -1.875096e+38
0.010226057 0.47588769 1.8430001 -1.8484072e+38
0.015309386 0.47717771 1.848 -1.8217184e+38
0.020486148 0.48001647 1.8590001 -1.8884404e+38
0.02565426 0.48156375 1.8650001 -1.875096e+38
0.030904602 0.48388523 1.8740001 -1.9017848e+38
0.036184877 0.48594794 1.8820001 -1.8484072e+38
0.04150882 0.48801029 1.8900001 -1.8884404e+38
0.046728231 0.48852292 1.8920001 -1.8484072e+38
0.052013319 0.48955145 1.8960001 -1.8484072e+38
0.057380494 0.49109599 1.9020001 -1.915025e+38
0.062846132 0.49315637 1.9100001 -1.9016805e+38
0.068248451 0.49444175 1.9150001 -1.8751475e+38
0.073716313 0.49598485 1.9210001 -1.9151807e+38
0.07929901 0.49804384 1.9290001 -1.915285e+38
0.08540754 0.50294238 1.9480001 -1.9286294e+38
0.091945812 0.50964749 1.9740001 -2.1287955e+38
0.098428786 0.51531935 1.9960001 -1.8619074e+38
0.10466748 0.5191834 2.0110002 -2.0354889e+38
0.11115227 0.52382129 2.029 -1.9687153e+38
0.11796527 0.52949125 2.0510001 -1.9153377e+38
0.12471753 0.5343861 2.0700002 -2.4357697e+38
-0.18937351 0.46573499 1.8240001 -1.7285162e+38
-0.18226923 0.46038756 1.8030001 -1.9820597e+38
-0.17645954 0.45810366 1.794 -1.8219269e+38
-0.1712724 0.45735157 1.7910001 -1.8752518e+38
-0.16600828 0.45634362 1.7870001 -1.9418695e+38
-0.16067547 0.45507997 1.7820001 -1.9151807e+38
-0.15554443 0.4543266 1.779 -1.8751475e+38
-0.14992121 0.45204058 1.7700001 -1.9684022e+38
-0.14410087 0.4489879 1.7580001 -1.9817466e+38
-0.13890043 0.44772249 1.7530001 -1.9417134e+38
-0.13426247 0.4482446 1.7550001 -1.9417134e+38
-0.12990832 0.44978797 1.761 -1.9417138e+38
-0.1253079 0.45056477 1.7640001 -1.8749917e+38
-0.12055418 0.45083043 1.7650001 -1.835063e+38
